X,Y,Z
0.027568094432353973,0.016622118651866913,201.0
0.023766987025737762,0.015247393399477005,169.0
0.027005046606063843,0.017666742205619812,100.0
0.022345498204231262,0.015763215720653534,348.0
0.023814305663108826,0.01723548397421837,294.0
0.018316805362701416,0.014767870306968689,520.0
0.3847322463989258,3.468824615643284e+76,3222.0
0.3928356170654297,3.398321896361549e+76,3114.0
0.35819876194000244,3.049059022482213e+76,3595.0
0.39497601985931396,3.1651519174323074e+76,3167.0
0.38190317153930664,2.959932630858298e+76,3344.0
0.3792339563369751,2.822733505405083e+76,3445.0
0.36234724521636963,2.5992052661223078e+76,3736.0
0.37450921535491943,2.555692516104332e+76,3495.0
0.37867844104766846,2.4629675539352008e+76,3482.0
0.37923717498779297,2.3489334499203537e+76,3490.0
0.38777053356170654,2.28187953328811e+76,3367.0
0.4070373773574829,2.2755961834139918e+76,3068.0
0.39758384227752686,2.1045350198595184e+76,3312.0
0.38440120220184326,1.9149592315551445e+76,3423.0
0.3755950927734375,1.7522057000783028e+76,3541.0
0.38298583030700684,1.6789981864032606e+76,3418.0
0.3876231908798218,1.590549546270601e+76,3377.0
0.400418758392334,1.544675708827388e+76,3252.0
0.4068201780319214,1.4643531848434394e+76,3137.0
0.3948708772659302,1.2904416000477414e+76,3368.0
0.400240421295166,1.205540457537332e+76,3231.0
0.404651403427124,1.1156293373537873e+76,3040.0
0.3499642610549927,7.39730553798282e+75,3619.0
0.29032421112060547,3.4943886841117964e+75,4120.0
0.32769131660461426,4.229410866552298e+75,3467.0
0.35216426849365234,4.317497855176386e+75,3093.0
0.35712969303131104,3.489916352479076e+75,2848.0
0.3900644779205322,3.902861639900249e+75,1934.0
0.11171314120292664,3.1041432404252176e+75,1133.0
0.09910136461257935,2.3811180185720248e+75,2413.0
0.11555512249469757,2.903391281717827e+75,3485.0
0.1605561375617981,2.5200984847573464e+75,1294.0
0.13314533233642578,1.1253727052152102e+76,6088.0
0.3832591772079468,2.62160833476399e+76,2841.0
0.3907439708709717,2.5468758802336244e+76,2714.0
0.37636828422546387,2.387532501626732e+76,2815.0
0.39897048473358154,2.3698926732262873e+76,2881.0
0.3930162191390991,2.2439378729212635e+76,3303.0
0.39080142974853516,2.1327673034656998e+76,3588.0
0.39808499813079834,2.0559318868234672e+76,3670.0
0.4053385257720947,1.9782855149854866e+76,3685.0
0.4000859260559082,1.8574845937649287e+76,3696.0
0.39668214321136475,1.743941894089973e+76,3713.0
0.380695104598999,1.5903590580714294e+76,3891.0
0.3887113332748413,1.515659386836211e+76,3835.0
0.38414227962493896,1.4010596847082445e+76,3896.0
0.39498353004455566,1.3341479440507447e+76,3807.0
0.4038665294647217,1.2601860694999983e+76,3671.0
0.4049597978591919,1.1627520457984519e+76,3662.0
0.3875410556793213,1.0133126731992039e+76,3900.0
0.3933730125427246,9.304696314494074e+75,3886.0
0.3933224678039551,8.313388134085025e+75,3842.0
0.39419519901275635,7.34884492600883e+75,3835.0
0.3842722177505493,6.112221073449457e+75,4054.0
0.4036165475845337,5.612724435966357e+75,3771.0
0.4131636619567871,4.854091379273485e+75,3658.0
0.3815014362335205,3.1276367849896926e+75,4126.0
0.3987952470779419,2.550209078631807e+75,3800.0
0.42786967754364014,2.207865205465128e+75,3491.0
0.40580034255981445,7.468310704398601e+74,3774.0
0.3944660425186157,1.4011897826268815e+76,3908.0
0.42051827907562256,1.3558472071087129e+76,3599.0
0.41006147861480713,1.2375695643525416e+76,3803.0
0.40743589401245117,1.1352956910253083e+76,3808.0
0.4027780294418335,1.0299748692296257e+76,3877.0
0.4129037857055664,9.505580269100347e+75,3720.0
0.3893282413482666,8.150330925768924e+75,4045.0
0.40332484245300293,7.415082711135566e+75,3925.0
0.4282042980194092,6.824438160523576e+75,3611.0
0.40344417095184326,5.4948874697144285e+75,3825.0
0.39151155948638916,4.374323383722686e+75,3910.0
0.40634942054748535,3.615690327029814e+75,3852.0
0.40822887420654297,2.6802086473833673e+75,3693.0
0.42001307010650635,1.857253040174994e+75,3609.0
0.4048788547515869,7.281014562912572e+74,3815.0
0.42056167125701904,7.170099185528181e+75,3538.0
0.40730786323547363,6.080945809878976e+75,3718.0
0.403964638710022,5.097744593272526e+75,3787.0
0.4135385751724243,4.2246512497278924e+75,3664.0
0.39712536334991455,3.14624389314064e+75,3923.0
0.3786555528640747,2.0768510800005894e+75,4127.0
0.4070615768432617,1.3180670476063814e+75,3800.0
0.4174567461013794,4.241433708688407e+74,3646.0
0.41581928730010986,3.0782944749199e+75,3653.0
0.4001415967941284,2.0596665943153742e+75,3745.0
0.394405722618103,1.0961853924582916e+75,3802.0
0.41561317443847656,2.1369532126250283e+74,3554.0
0.4047834873199463,1.0469912542553818e+75,3760.0
0.4139026403427124,1.1294341241248084e+74,3561.0
0.4209752082824707,6.996127728082925e+73,3498.0
0.41100001335144043,3.172730773623622e+72,3629.0
0.37597763538360596,4.6137720346450806e-05,4063.0
0.21991896629333496,0.00625187624245882,6354.0
0.40086448192596436,2.6151537895202637e-06,167.0
0.22180640697479248,0.0010970458388328552,5042.0
0.18871068954467773,0.0043394118547439575,3459.0
0.20957022905349731,0.00907600112259388,3372.0
0.20641696453094482,0.013081448152661324,3927.0
0.1872585415840149,0.0006834156811237335,4221.0
0.18306660652160645,0.004471860826015472,4233.0
0.19981861114501953,0.009431321173906326,4001.0
0.20555788278579712,0.013884618878364563,3912.0
0.19431006908416748,0.01722211018204689,3979.0
0.20697933435440063,0.02224099263548851,3721.0
0.20067602396011353,0.02586521953344345,3769.0
0.18638503551483154,0.028721608221530914,4004.0
0.16909801959991455,0.031135205179452896,4146.0
0.09209918975830078,0.027432221919298172,3549.0
0.008206963539123535,0.022104892879724503,1627.0
0.24496713280677795,0.02362775057554245,1382.0
0.23371374607086182,0.02523038163781166,633.0
0.2234514057636261,0.026825740933418274,2970.0
3.054598346352577e-05,1.090715522877872e-05,0.0
2.9028858989477158e-05,2.24421382881701e-05,0.0
2.744467929005623e-05,3.396809916011989e-05,0.0
2.579321153461933e-05,4.548465949483216e-05,0.0
2.4074921384453773e-05,5.6991411838680506e-05,0.0
0.07100492715835571,0.019552145153284073,2630.0
0.05984935164451599,0.019635986536741257,3544.0
0.0664488673210144,0.02261212468147278,3878.0
0.05234256386756897,0.02202266827225685,3866.0
0.03136768937110901,0.02001623436808586,80.0
0.04285764694213867,0.02387179061770439,3814.0
0.03467881679534912,0.02404896914958954,75.0
0.03239127993583679,0.025311261415481567,4091.0
0.043809860944747925,0.029378138482570648,3515.0
0.036605000495910645,0.029631733894348145,4001.0
0.029407352209091187,0.029803607612848282,87.0
0.026120394468307495,0.030770469456911087,279.0
0.02478054165840149,0.0009008198976516724,351.0
0.02148786187171936,0.0018067210912704468,115.0
0.1227879673242569,0.028967395424842834,2451.0
0.10302692651748657,0.02557188645005226,2157.0
0.054247304797172546,0.014525603502988815,2519.0
0.06752227246761322,0.019110489636659622,1964.0
0.054668575525283813,0.016866575926542282,2096.0
0.04648159444332123,0.014241581782698631,2337.0
0.044467777013778687,0.0162544846534729,2297.0
0.019194796681404114,0.010076276957988739,2195.0
0.05733916163444519,0.022158212959766388,2151.0
0.0062498897314071655,0.008024297654628754,2641.0
0.04140394926071167,0.019600078463554382,2327.0
0.037286803126335144,0.019376009702682495,2287.0
0.04556548595428467,0.023049335926771164,2883.0
0.03002914786338806,0.019098442047834396,3080.0
0.013595789670944214,0.014654386788606644,3630.0
0.0076417475938797,0.013540256768465042,3333.0
0.018725723028182983,0.018216334283351898,2883.0
0.04674519598484039,0.028979510068893433,3946.0
0.036974772810935974,0.026613406836986542,3427.0
0.024418801069259644,0.023110121488571167,3741.0
0.0503566712141037,0.0024541467428207397,3629.0
0.005062282085418701,0.017788846045732498,3784.0
0.0346510112285614,0.03000810742378235,3894.0
0.018455922603607178,0.024753574281930923,3866.0
0.02928052842617035,0.03001599758863449,3917.0
0.00944952666759491,0.023048512637615204,10.0
0.013756603002548218,0.02572900429368019,4064.0
0.010654345154762268,0.025379497557878494,4032.0
0.007560938596725464,0.024995874613523483,3504.0
0.05412084609270096,0.019034985452890396,3819.0
0.06023804098367691,0.022521495819091797,3944.0
0.00016398727893829346,0.024454377591609955,3726.0
0.053225576877593994,0.021062437444925308,3617.0
0.05291931331157684,0.02173474431037903,3950.0
0.049890026450157166,0.021137811243534088,3823.0
0.04777558892965317,0.020935222506523132,3817.0
0.03845620155334473,0.017245840281248093,4077.0
0.04716099798679352,0.02221464365720749,3915.0
0.048640720546245575,0.023738566786050797,3825.0
0.038488246500492096,0.019448868930339813,4079.0
0.037300534546375275,0.019581619650125504,187.0
0.03522631525993347,0.019243255257606506,4071.0
0.026073575019836426,0.015168987214565277,156.0
0.013439767062664032,0.009112764149904251,662.0
0.022006437182426453,0.014298465102910995,357.0
0.02437254786491394,0.01622801274061203,331.0
0.024094894528388977,0.016732562333345413,124.0
0.023814305663108826,0.01723548397421837,215.0
0.028744779527187347,0.020705658942461014,342.0
0.3907942771911621,3.509355121064812e+76,3136.0
0.38936007022857666,3.3753949851721456e+76,3216.0
0.3712751865386963,3.134155484414236e+76,3513.0
0.3853555917739868,3.1033950911212255e+76,3290.0
0.37751615047454834,2.9321565526856395e+76,3463.0
0.38715553283691406,2.8721990116471658e+76,3319.0
0.3914836645126343,2.7786161624071285e+76,3307.0
0.39222192764282227,2.663234837505388e+76,3340.0
0.40177488327026367,2.6012191957063013e+76,3151.0
0.38636505603790283,2.3909926921576954e+76,3335.0
0.385089635848999,2.2662877981160754e+76,3407.0
0.39359426498413086,2.1985402559759792e+76,3269.0
0.38769733905792236,2.0486922999930012e+76,3407.0
0.39071035385131836,1.9500718660944415e+76,3310.0
0.3855370283126831,1.8067136222013507e+76,3385.0
0.378454327583313,1.6545266643814453e+76,3508.0
0.389440655708313,1.6002161322039157e+76,3449.0
0.37581801414489746,1.4158366687240405e+76,3560.0
0.39129042625427246,1.384277743378706e+76,3371.0
0.40036606788635254,1.3183336275590261e+76,3275.0
0.396567702293396,1.1871921648743893e+76,3223.0
0.391764760017395,1.0522788978112314e+76,3288.0
0.30382752418518066,5.165819105645801e+75,4287.0
0.29124903678894043,3.538394218818933e+75,4106.0
0.33139991760253906,4.402948376696e+75,3371.0
0.37075066566467285,5.1726656380218174e+75,2925.0
0.3869363069534302,4.838137992592879e+75,2475.0
0.3648585081100464,2.7822595943035992e+75,2244.0
0.08645124733448029,2.0005419215172995e+75,1332.0
0.09910136461257935,2.3811180185720248e+75,2375.0
0.10146009922027588,2.3092277031872676e+75,2668.0
0.17091423273086548,2.9488487713126698e+75,1776.0
0.10578137636184692,1.0141798776276781e+76,6307.0
0.4021691083908081,2.6970206113095144e+76,2578.0
0.37179648876190186,2.4727387013256695e+76,2942.0
0.37826669216156006,2.3948183301577214e+76,2863.0
0.39136219024658203,2.3412607785066266e+76,2932.0
0.3939690589904785,2.247452932335684e+76,3263.0
0.407983660697937,2.1948785344516895e+76,3291.0
0.39521634578704834,2.0457735514629435e+76,3617.0
0.38426315784454346,1.90520568361786e+76,3858.0
0.39528775215148926,1.841198542910407e+76,3714.0
0.39572083950042725,1.7407494913172652e+76,3714.0
0.3893606662750244,1.6185088658087668e+76,3783.0
0.3858182430267334,1.5064707468374115e+76,3852.0
0.3899376392364502,1.4190463258626154e+76,3833.0
0.40272271633148193,1.3576097405820245e+76,3648.0
0.3951467275619507,1.2343783693854444e+76,3810.0
0.38846516609191895,1.115114812163634e+76,3864.0
0.39725780487060547,1.0406805130754498e+76,3756.0
0.3962920904159546,9.384835942199832e+75,3775.0
0.4215787649154663,9.069039636356083e+75,3460.0
0.40492725372314453,7.628248323365952e+75,3709.0
0.3940412998199463,6.3596452291087256e+75,3864.0
0.38405394554138184,5.1310412058043235e+75,3995.0
0.4004324674606323,4.5495690760872185e+75,3780.0
0.4069939851760864,3.7195236499441046e+75,3775.0
0.40075838565826416,2.594418214856174e+75,3840.0
0.41018104553222656,1.8219022953867327e+75,3731.0
0.3890763521194458,3.935686345525585e+74,3992.0
0.4190859794616699,4.0816927894919394e+73,3721.0
0.3988308906555176,1.3130494780122646e+76,3947.0
0.42486274242401123,1.2657535357342956e+76,3586.0
0.41138648986816406,1.1425452853879771e+76,3735.0
0.4245266914367676,1.0683839503678085e+76,3544.0
0.3911362886428833,9.136147041522515e+75,3996.0
0.42794811725616455,8.779231856381174e+75,3556.0
0.4023338556289673,7.399626250191928e+75,3882.0
0.37960565090179443,6.099697854703206e+75,4094.0
0.4093993902206421,5.579621935050563e+75,3725.0
0.42329490184783936,4.804835341033028e+75,3551.0
0.4013800621032715,3.5517680778024264e+75,3796.0
0.4380643367767334,3.043645982822425e+75,3326.0
0.4060816764831543,1.6970307241708377e+75,3778.0
0.39392662048339844,6.095881188973431e+74,3870.0
0.4165768623352051,7.129686009794549e+75,3605.0
0.4132879972457886,6.137537541767778e+75,3660.0
0.38501906394958496,4.931295176626978e+75,4019.0
0.4175288677215576,4.2570066366016466e+75,3676.0
0.4270637035369873,3.368741529150181e+75,3446.0
0.4165910482406616,2.3331336270959634e+75,3632.0
0.40506434440612793,1.3059242876274967e+75,3825.0
0.4014742374420166,3.3776025087411666e+74,3857.0
0.3958359956741333,2.9837737646231634e+75,3811.0
0.4051384925842285,2.0799314156669913e+75,3705.0
0.4233933687210083,1.1941966609699177e+75,3542.0
0.39861786365509033,1.6768741739650358e+74,3798.0
0.40178394317626953,1.0408924829601256e+75,3785.0
0.4209022521972656,1.2245941086769167e+74,3542.0
0.4189751148223877,6.858955519440462e+73,3546.0
0.3890000581741333,2.9028768724554445e+72,3983.0
0.40297722816467285,0.00020034052431583405,3738.0
0.21991896629333496,0.00625187624245882,6639.0
0.4058637022972107,8.933991193771362e-05,468.0
0.23780208826065063,0.001467617228627205,5016.0
0.20970189571380615,0.004947906360030174,3126.0
0.1985769271850586,0.008693309500813484,3429.0
0.18643349409103394,0.012269385159015656,4151.0
0.21722620725631714,0.0020758621394634247,3831.0
0.2020406723022461,0.005464132875204086,3941.0
0.17885398864746094,0.008212622255086899,4272.0
0.20455992221832275,0.01382078230381012,3883.0
0.18932223320007324,0.01687389239668846,3979.0
0.18005627393722534,0.020203959196805954,4090.0
0.2026694416999817,0.026027709245681763,3752.0
0.21627122163772583,8.285790681838989e-05,3643.0
0.16909801959991455,0.031135205179452896,4037.0
0.09209918975830078,0.027432221919298172,3665.0
0.01019597053527832,0.022313714027404785,1780.0
0.24397319555282593,0.023517552763223648,1320.0
0.2436462640762329,0.026390142738819122,612.0
0.20062249898910522,0.02402544394135475,3074.0
3.054598346352577e-05,1.090715522877872e-05,0.0
2.9028858989477158e-05,2.24421382881701e-05,0.0
2.744467929005623e-05,3.396809916011989e-05,0.0
2.579321153461933e-05,4.548465949483216e-05,0.0
2.4074921384453773e-05,5.6991411838680506e-05,0.0
0.09075906872749329,0.022678431123495102,2277.0
0.06280967593193054,0.02012215554714203,3493.0
0.048704057931900024,0.019591819494962692,3928.0
0.05332741141319275,0.022196199744939804,4034.0
0.04218953847885132,0.02198801562190056,3957.0
0.047771334648132324,0.024796653538942337,4095.0
0.03664213418960571,0.02443034201860428,352.0
0.038274407386779785,0.02648961916565895,4019.0
0.03891304135322571,0.028367672115564346,3886.0
0.04051768779754639,0.03046288713812828,3777.0
0.03722292184829712,0.0002613961696624756,54.0
0.03197452425956726,0.0008353888988494873,3990.0
0.03160130977630615,0.0024745985865592957,46.0
0.041922420263290405,0.006647005677223206,3569.0
0.012363731861114502,0.0012595951557159424,2712.0
0.0981752872467041,0.02436291053891182,2453.0
0.06684306263923645,0.017742272466421127,2169.0
0.04430350661277771,0.013036862015724182,1880.0
0.04597492516040802,0.01453835517168045,2375.0
0.029310226440429688,0.011038966476917267,2342.0
0.03387603163719177,0.013285450637340546,2218.0
0.032652974128723145,0.013933394104242325,2410.0
0.04582299292087555,0.018785059452056885,1876.0
0.01008199155330658,0.00917099043726921,2327.0
0.048098355531692505,0.021645773202180862,2189.0
0.01819424331188202,0.013420011848211288,2689.0
0.03889532387256622,0.020925898104906082,3095.0
0.020518168807029724,0.016009584069252014,3307.0
0.040175795555114746,0.02345796674489975,3202.0
0.022800803184509277,0.018659144639968872,3476.0
0.02629023790359497,0.020819824188947678,3659.0
0.0325903594493866,0.02401554211974144,3336.0
0.036033064126968384,0.02627699077129364,3409.0
0.03099699318408966,0.025503333657979965,3952.0
0.03066420555114746,0.026409827172756195,3969.0
0.009740769863128662,0.01955283060669899,3932.0
0.016912013292312622,0.023201655596494675,3750.0
0.030565842986106873,0.029481150209903717,3873.0
0.011621907353401184,0.02300361916422844,3784.0
0.012231230735778809,0.024171926081180573,3944.0
0.01190650463104248,0.024969279766082764,3806.0
0.0078858882188797,0.024223797023296356,3536.0
0.005719810724258423,0.02421468123793602,3824.0
0.06238531321287155,0.022598490118980408,3833.0
0.058406129479408264,0.021718934178352356,3575.0
0.0480462983250618,0.017948754131793976,12.0
0.057781703770160675,0.02312198281288147,3577.0
0.0004162639379501343,0.02632397785782814,3764.0
0.04082632064819336,0.01691298931837082,247.0
0.05139116942882538,0.022646211087703705,3961.0
0.05197712033987045,0.023740816861391068,3897.0
0.05075643211603165,0.02396758273243904,3827.0
0.04774441570043564,0.02329510822892189,3919.0
0.031338632106781006,0.015859566628932953,1.0
0.032845161855220795,0.01731235161423683,212.0
0.029895782470703125,0.016489077359437943,146.0
0.031387992203235626,0.017954129725694656,54.0
0.025802046060562134,0.01568344607949257,136.0
0.02728809416294098,0.017145246267318726,99.0
0.033147551119327545,0.021023772656917572,4036.0
0.015347927808761597,0.011885836720466614,381.0
0.0229424387216568,0.016745731234550476,415.0
0.019185803830623627,0.015262685716152191,412.0
0.37174224853515625,3.381972349440637e+76,3398.0
0.3806711435317993,3.318078052285954e+76,3285.0
0.39481258392333984,3.287328701787098e+76,3109.0
0.39322686195373535,3.153923466300714e+76,3159.0
0.3599681854248047,2.8210508596457356e+76,3688.0
0.3765934705734253,2.8062459235572352e+76,3490.0
0.38971781730651855,2.7677431512123946e+76,3327.0
0.37539494037628174,2.5610696666831165e+76,3468.0
0.38400840759277344,2.4948715665978748e+76,3327.0
0.39972972869873047,2.469854806614663e+76,3145.0
0.3931320905685425,2.3130636938068138e+76,3229.0
0.3998676538467407,2.2344990446173927e+76,3184.0
0.38140594959259033,2.0131558982280113e+76,3421.0
0.38079607486724854,1.8948951647503897e+76,3494.0
0.3846331834793091,1.801758168324355e+76,3310.0
0.3902360200881958,1.7181517934286035e+76,3354.0
0.3921668529510498,1.6147153209292533e+76,3358.0
0.4013298749923706,1.549447576251559e+76,3228.0
0.382155179977417,1.337174014736495e+76,3464.0
0.3939549922943115,1.2857925837085433e+76,3390.0
0.3864675760269165,1.1367355678569075e+76,3368.0
0.3715142011642456,9.527281085051243e+75,3558.0
0.3628826141357422,8.022127536504116e+75,3478.0
0.27459967136383057,2.7462600853587397e+75,4357.0
0.33974432945251465,4.7933939710266356e+75,3312.0
0.3688920736312866,5.0871460990387355e+75,2920.0
0.3729645013809204,4.2061588831099605e+75,2702.0
0.3629913330078125,2.699259192737096e+75,2327.0
0.10422812402248383,2.777149713852094e+75,1484.0
0.10191434621810913,2.5018485419798454e+75,2912.0
0.09958076477050781,2.2300051450273387e+75,3246.0
0.16432273387908936,2.6760072092947585e+75,1018.0
0.05765855312347412,8.186337336460131e+75,5640.0
0.40689659118652344,2.715873766717725e+76,2517.0
0.38790178298950195,2.535755441432358e+76,2701.0
0.37921595573425293,2.3984614169668748e+76,2903.0
0.38565587997436523,2.3197866849232225e+76,3024.0
0.3968275785446167,2.257997765491628e+76,3297.0
0.4013017416000366,2.1707241476745092e+76,3456.0
0.4047790765762329,2.0796362797388367e+76,3501.0
0.3727675676345825,1.8653439574173365e+76,4016.0
0.3981665372848511,1.850970035388193e+76,3653.0
0.388031005859375,1.7152095789609667e+76,3861.0
0.3980259895324707,1.6466579833714694e+76,3707.0
0.37424564361572266,1.469717222104165e+76,4016.0
0.40635812282562256,1.4700091659746343e+76,3621.0
0.39208126068115234,1.3253499428951734e+76,3806.0
0.40483522415161133,1.2630534000197724e+76,3651.0
0.40593016147613525,1.1655541548152488e+76,3619.0
0.38656938076019287,1.010575785685384e+76,3945.0
0.38656187057495117,9.117707300720477e+75,3901.0
0.41280949115753174,8.83452864811166e+75,3590.0
0.39907336235046387,7.475843960536123e+75,3820.0
0.4116255044937134,6.805011469993947e+75,3605.0
0.38698840141296387,5.203295588308874e+75,3963.0
0.4063084125518799,4.690119689566435e+75,3754.0
0.39326727390289307,3.4008182580151833e+75,3925.0
0.3899606466293335,2.3512731419319157e+75,3937.0
0.3885616064071655,1.3501679325835976e+75,4011.0
0.40678417682647705,7.676122286900465e+74,3745.0
0.4052988290786743,1.4233188519385961e+76,3721.0
0.39784514904022217,1.3111042208044217e+76,3890.0
0.37848567962646484,1.177444310877841e+76,4173.0
0.41138648986816406,1.1425452853879771e+76,3719.0
0.3938809633255005,1.0142621809528636e+76,3994.0
0.40993547439575195,9.455202697078536e+75,3712.0
0.3913087844848633,8.18258106101089e+75,3945.0
0.40332484245300293,7.415082711135566e+75,3924.0
0.4044008255004883,6.469462366105684e+75,3813.0
0.3915337324142456,5.325421989915333e+75,4009.0
0.4203152656555176,4.7644739283969964e+75,3624.0
0.4282149076461792,3.896943392407876e+75,3524.0
0.4231466054916382,2.8619281778211894e+75,3652.0
0.41105711460113525,1.7542531031320782e+75,3791.0
0.41682684421539307,8.573901451690982e+74,3563.0
0.37872183322906494,6.745766016634804e+75,4009.0
0.4372081756591797,6.363904469322989e+75,3354.0
0.4189215898513794,5.229151255560538e+75,3585.0
0.4035630226135254,4.143764507980094e+75,3830.0
0.41309237480163574,3.2649090689541835e+75,3641.0
0.4056098461151123,2.2589467556143116e+75,3686.0
0.40007126331329346,1.2755652308845517e+75,3911.0
0.4024730920791626,3.431591419538936e+74,3756.0
0.3928384780883789,2.969595852190269e+75,3923.0
0.4171311855316162,2.128567159454531e+75,3588.0
0.40340185165405273,1.1266026826860376e+75,3775.0
0.4226113557815552,2.326397522661496e+74,3522.0
0.3987843990325928,1.0347937116648695e+75,3783.0
0.39690375328063965,8.983377748854599e+73,3756.0
0.41197526454925537,6.37886357317051e+73,3582.0
0.3970000743865967,3.0010060233338727e+72,3811.0
0.3919774293899536,0.00013751722872257233,3904.0
0.19792044162750244,0.005998256616294384,6930.0
0.38686656951904297,0.007572289556264877,362.0
0.22980421781539917,0.0012823306024074554,4932.0
0.18771111965179443,0.004310436546802521,3405.0
0.20557266473770142,0.008936839178204536,3412.0
0.20841538906097412,0.013162655755877495,3800.0
0.18226391077041626,0.00045134127140045166,4221.0
0.1940516233444214,0.005046334117650986,4051.0
0.18983548879623413,0.00885099172592163,4132.0
0.18360275030136108,0.012480150908231735,4143.0
0.1873270869255066,0.01673460379242897,4025.0
0.19800496101379395,0.02156198024749756,3859.0
0.21363306045532227,0.026921402662992477,3608.0
0.20730537176132202,0.030549481511116028,3745.0
0.1611325740814209,0.030392520129680634,4104.0
0.06821620464324951,0.025065205991268158,3808.0
0.009201467037200928,0.022209301590919495,1694.0
0.24297931790351868,0.023407358676195145,1377.0
0.23470699787139893,0.025346361100673676,747.0
0.2026076316833496,0.024268947541713715,3336.0
3.054598346352577e-05,1.090715522877872e-05,0.0
2.9028858989477158e-05,2.24421382881701e-05,0.0
2.744467929005623e-05,3.396809916011989e-05,0.0
2.579321153461933e-05,4.548465949483216e-05,0.0
2.4074921384453773e-05,5.6991411838680506e-05,0.0
0.06606638431549072,0.018770575523376465,2435.0
0.0697171688079834,0.02125655487179756,3501.0
0.05560481548309326,0.020766381174325943,3619.0
0.046433597803115845,0.02098151296377182,3892.0
0.03727051615715027,0.021091751754283905,3985.0
0.034995704889297485,0.022392015904188156,127.0
0.0454770028591156,0.02614651620388031,3829.0
0.025527596473693848,0.02393651008605957,3915.0
0.02716064453125,0.025942545384168625,38.0
0.03758314251899719,0.029839519411325455,3686.0
0.04210770130157471,0.0013287737965583801,3816.0
0.03978005051612854,0.002588614821434021,4032.0
0.033550113439559937,0.0029242560267448425,80.0
0.006891727447509766,0.02959936484694481,3531.0
0.1237596720457077,0.029203541576862335,3087.0
0.07197645306587219,0.017834439873695374,2558.0
0.067811980843544,0.017989706248044968,2023.0
0.04623839259147644,0.013542994856834412,2062.0
0.06239625811576843,0.01893610507249832,1941.0
0.04667012393474579,0.015796471387147903,1896.0
0.025210067629814148,0.010856244713068008,2066.0
0.021117404103279114,0.010627292096614838,2529.0
0.01415356993675232,0.009508900344371796,2053.0
0.02062031626701355,0.01232440397143364,2584.0
0.03470952808856964,0.0175543874502182,2125.0
0.03155903518199921,0.017589211463928223,2628.0
0.03698955476284027,0.020319201052188873,3049.0
0.013860464096069336,0.013847380876541138,3009.0
0.02213934063911438,0.017484106123447418,2962.0
0.03227521479129791,0.021858450025320053,3131.0
0.025344669818878174,0.02049439027905464,3478.0
0.034477680921554565,0.024677403271198273,3575.0
0.024732500314712524,0.022240009158849716,3081.0
0.02535855770111084,0.02345200628042221,3860.0
0.027851000428199768,0.02536778151988983,3343.0
0.023776262998580933,0.024844791740179062,3737.0
0.015978381037712097,0.02284342050552368,3841.0
0.024976655840873718,0.027299191802740097,3788.0
0.02649231255054474,0.028908777981996536,3909.0
0.015012949705123901,0.02529534325003624,3807.0
0.007281303405761719,0.02306998148560524,3963.0
0.018036887049674988,0.028461378067731857,3888.0
0.007560938596725464,0.024995874613523483,3774.0
0.009986326098442078,0.02695387974381447,3731.0
0.057490184903144836,0.021317657083272934,3864.0
0.05078711360692978,0.019168559461832047,3921.0
0.05413680523633957,0.02147434651851654,4054.0
0.0511016845703125,0.020900338888168335,3703.0
0.053515516221523285,0.022827744483947754,3925.0
0.050487272441387177,0.022218462079763412,3858.0
0.03575202077627182,0.01594684273004532,3749.0
0.05525074154138565,0.026158761233091354,3794.0
0.042366646230220795,0.020634371787309647,3962.0
0.038488246500492096,0.019448868930339813,3978.0
0.03551838546991348,0.018673911690711975,3977.0
0.03877999633550644,0.021079372614622116,4019.0
0.024302102625370026,0.014240607619285583,335.0
0.025802046060562134,0.01568344607949257,131.0
0.03168947249650955,0.01951756328344345,4057.0
0.026127547025680542,0.01718716323375702,109.0
0.030217759311199188,0.020125266164541245,321.0
0.019454993307590485,0.014786720275878906,306.0
0.0252687931060791,0.018726397305727005,194.0
0.3622162342071533,3.3182809636285497e+76,3557.0
0.398048996925354,3.432711918058337e+76,3079.0
0.3808645009994507,3.196559694532647e+76,3274.0
0.3809826374053955,3.075324308379559e+76,3362.0
0.38190317153930664,2.959932630858298e+76,3375.0
0.38275468349456787,2.8447183282181498e+76,3392.0
0.3985469341278076,2.8221095875353333e+76,3176.0
0.37893736362457275,2.5825782689982546e+76,3444.0
0.38223183155059814,2.48423735582674e+76,3435.0
0.3828010559082031,2.3699630710390245e+76,3398.0
0.38777053356170654,2.28187953328811e+76,3369.0
0.3676043748855591,2.0495646807312356e+76,3508.0
0.38140594959259033,2.0131558982280113e+76,3415.0
0.39341437816619873,1.965119743654349e+76,3304.0
0.3855370283126831,1.8067136222013507e+76,3376.0
0.37301671504974365,1.6251618041997555e+76,3568.0
0.39398419857025146,1.6243812166879335e+76,3243.0
0.37490689754486084,1.4110648012998695e+76,3551.0
0.39220380783081055,1.3889874950857558e+76,3353.0
0.3930389881134033,1.2811435673693452e+76,3364.0
0.376367449760437,1.0862789708394257e+76,3555.0
0.3972877264022827,1.0794296777648708e+76,3234.0
0.32966411113739014,6.4154562009420475e+75,3884.0
0.2838493585586548,3.1863292359227996e+75,4143.0
0.2831876277923584,2.1469952535596086e+75,4008.0
0.351235032081604,4.274741536558018e+75,3134.0
0.3599240779876709,3.6163149350741985e+75,2848.0
0.37045979499816895,3.0312884059884964e+75,2207.0
0.10890623927116394,2.981520775800083e+75,1284.0
0.11410397291183472,3.025010404967797e+75,2762.0
0.11837412416934967,3.0222238248802803e+75,3592.0
0.16714763641357422,2.7929400467752576e+75,1226.0
0.09445840120315552,9.681692130631401e+75,4388.0
0.41446053981781006,2.746038884388325e+76,2395.0
0.3850597143173218,2.5246346575437745e+76,2764.0
0.38775885105133057,2.4312481629873034e+76,2719.0
0.40848076343536377,2.4056827141695218e+76,2794.0
0.40635573863983154,2.2931462891119282e+76,3054.0
0.39939260482788086,2.1638230915023533e+76,3441.0
0.41051673889160156,2.0999536406345188e+76,3439.0
0.3813892602920532,1.8952402520677292e+76,3830.0
0.3933684825897217,1.834683639446354e+76,3734.0
0.3909146785736084,1.7247867872790906e+76,3773.0
0.3816579580307007,1.593486929515795e+76,3893.0
0.3993196487426758,1.5493506067153866e+76,3709.0
0.40925586223602295,1.479002831639137e+76,3609.0
0.41916847229003906,1.4074658856673355e+76,3538.0
0.38352060317993164,1.199968677711568e+76,3974.0
0.4030193090438843,1.1571474826775406e+76,3718.0
0.4001728296279907,1.0488908305295919e+76,3761.0
0.40018415451049805,9.49168532826767e+75,3754.0
0.40598905086517334,8.65212929565868e+75,3702.0
0.3961465358734131,7.399648680867555e+75,3800.0
0.4096717834472656,6.755525948687459e+75,3688.0
0.4182884693145752,5.973985995869589e+75,3558.0
0.4131636619567871,4.854091379273485e+75,3593.0
0.39032578468322754,3.3325220270405173e+75,3976.0
0.3948688507080078,2.4617942570562464e+75,3915.0
0.4150944948196411,1.9291140231377773e+75,3649.0
0.39301133155822754,4.766898166801307e+74,3931.0
0.4013596773147583,1.415272105872873e+76,3835.0
0.3850299119949341,1.285814669296853e+76,4032.0
0.38243257999420166,1.1849599675621785e+76,4086.0
0.42521393299102783,1.167919383288294e+76,3613.0
0.41661810874938965,1.0544170588294671e+76,3667.0
0.38223159313201904,8.985016050893668e+75,4115.0
0.4051722288131714,8.408340634887583e+75,3865.0
0.41819071769714355,7.646960683148688e+75,3694.0
0.4252288341522217,6.780065107823473e+75,3575.0
0.4103919267654419,5.593744633512683e+75,3754.0
0.4143558740615845,4.683752828561521e+75,3672.0
0.40634942054748535,3.615690327029814e+75,3800.0
0.41320157051086426,2.7407835496325613e+75,3679.0
0.41006195545196533,1.7428082822525128e+75,3680.0
0.42080938816070557,9.004846493584584e+74,3568.0
0.4036264419555664,6.998344914096831e+75,3746.0
0.4122912883758545,6.128105442666596e+75,3714.0
0.42789578437805176,5.307995080389687e+75,3504.0
0.40555810928344727,4.1599413386986774e+75,3760.0
0.40111708641052246,3.175910187094026e+75,3812.0
0.40161657333374023,2.231969554581294e+75,3879.0
0.40806031227111816,1.3241388589549704e+75,3759.0
0.4274458885192871,4.781331443849032e+74,3475.0
0.42581093311309814,3.125555045747842e+75,3356.0
0.4051384925842285,2.0799314156669913e+75,3735.0
0.402402400970459,1.1232229837718436e+75,3676.0
0.4146134853363037,2.1098897397626758e+74,3557.0
0.4037836790084839,1.0449582585971053e+75,3750.0
0.3919041156768799,8.303663573482397e+73,3937.0
0.40897536277770996,6.173105260206817e+73,3704.0
0.39900004863739014,3.025537889804313e+72,3806.0
0.3839775323867798,9.182747453451157e-05,3979.0
0.21591925621032715,0.006205764599144459,6659.0
0.4158622622489929,0.0002627875655889511,161.0
0.2398015260696411,0.0015139374881982803,4784.0
0.1927090287208557,0.004455314949154854,3187.0
0.20557266473770142,0.008936839178204536,3289.0
0.1684483289718628,0.01153852790594101,4314.0
0.19025534391403198,0.0008226595818996429,4100.0
0.20403796434402466,0.00556858628988266,3912.0
0.18983548879623413,0.00885099172592163,4177.0
0.2115456461906433,0.014267660677433014,3826.0
0.18632948398590088,0.016664959490299225,4027.0
0.20598214864730835,0.022165540605783463,3715.0
0.203666090965271,0.02610895410180092,3735.0
0.1804078221321106,0.02819935977458954,4077.0
0.18005049228668213,0.0009063854813575745,3955.0
0.1090162992477417,0.02910885587334633,3435.0
0.020141303539276123,0.02335783839225769,1583.0
0.22310110926628113,0.021203432232141495,1577.0
0.22775423526763916,0.024534527212381363,793.0
0.19168946146965027,0.02292967587709427,2807.0
3.054598346352577e-05,1.090715522877872e-05,0.0
0.15931478142738342,0.023799341171979904,2152.0
0.13918191194534302,0.02339836210012436,2554.0
0.2407817840576172,0.05659504234790802,1876.0
2.4074921384453773e-05,5.6991411838680506e-05,0.0
0.0838451087474823,0.02158423140645027,2183.0
0.05195510387420654,0.018339529633522034,3403.0
0.05461898446083069,0.02059859037399292,3813.0
0.04446396231651306,0.02063446119427681,3799.0
0.04317334294319153,0.02216726541519165,212.0
0.038926661014556885,0.023131899535655975,217.0
0.04056870937347412,0.02519308030605316,3984.0
0.03141072392463684,0.025114864110946655,13.0
0.02716064453125,0.025942545384168625,4059.0
0.03953951597213745,0.030255094170570374,3911.0
0.04210770130157471,0.0013287737965583801,4053.0
0.03490161895751953,0.0014928504824638367,124.0
0.03452453017234802,0.003149084746837616,3915.0
0.01954171061515808,0.0013457387685775757,3738.0
0.1237596720457077,0.029203541576862335,3226.0
0.07585777342319489,0.018801622092723846,2698.0
0.060060739517211914,0.01601022109389305,2398.0
0.014312595129013062,0.0051917582750320435,2082.0
0.02858765423297882,0.009881913661956787,2150.0
0.03991904854774475,0.013946328312158585,2336.0
0.04735642671585083,0.01706421747803688,2155.0
0.005736619234085083,0.006219156086444855,2113.0
0.040064916014671326,0.01709848642349243,2097.0
0.032116636633872986,0.01576448604464531,2000.0
0.046185657382011414,0.021061286330223083,2406.0
0.03155903518199921,0.017589211463928223,2508.0
0.01412045955657959,0.013038847595453262,2997.0
0.00910496711730957,0.012302946299314499,3057.0
0.033530786633491516,0.021257072687149048,2886.0
0.025643140077590942,0.019618935883045197,3563.0
0.030072495341300964,0.022121567279100418,3355.0
0.03353402018547058,0.024346474558115005,3395.0
0.031324490904808044,0.02459491416811943,3497.0
0.020659834146499634,0.0217425674200058,3416.0
0.02691325545310974,0.025020431727170944,3660.0
0.009740769863128662,0.01955283060669899,3737.0
0.021580174565315247,0.024992823600769043,3373.0
0.017524391412734985,0.02438991516828537,33.0
0.007904306054115295,0.021527335047721863,3983.0
0.018721893429756165,0.026793234050273895,3626.0
0.004506155848503113,0.021930400282144547,213.0
0.01157715916633606,0.02576473355293274,3757.0
0.005719810724258423,0.02421468123793602,3721.0
0.004476681351661682,0.024578213691711426,4088.0
0.010561421513557434,0.02813941240310669,3678.0
0.05992317199707031,0.023234568536281586,3880.0
0.053225576877593994,0.021062437444925308,3853.0
0.04928405582904816,0.02006593346595764,3612.0
0.054421886801719666,0.02325022593140602,3671.0
0.04867947846651077,0.021362967789173126,3885.0
0.047470152378082275,0.02157582715153694,3993.0
0.03817238658666611,0.01783229410648346,4034.0
0.04774441570043564,0.02329510822892189,3933.0
0.032232336699962616,0.01630822941660881,4039.0
0.032845161855220795,0.01731235161423683,222.0
0.02723052352666855,0.015111986547708511,4095.0
0.03758814185857773,0.021203458309173584,3939.0
0.02226996421813965,0.013806108385324478,328.0
0.020245887339115143,0.013349540531635284,470.0
0.015597537159919739,0.011432252824306488,211.0
0.020596109330654144,0.014793872833251953,427.0
0.02207057923078537,0.016255978494882584,475.0
0.027006790041923523,0.01971602812409401,144.0
0.3994542360305786,3.5672566318665765e+76,3101.0
0.39109790325164795,3.38685809567953e+76,3139.0
0.3634294271469116,3.083097745289949e+76,3593.0
0.3599923849105835,2.940581514451167e+76,3690.0
0.3617229461669922,2.832161290914799e+76,3698.0
0.38627541065216064,2.8667024608565818e+76,3320.0
0.37912261486053467,2.7025023233454528e+76,3449.0
0.3886793851852417,2.6417269253648845e+76,3330.0
0.383120059967041,2.4895544612123074e+76,3392.0
0.39349281787872314,2.4330526245696718e+76,3293.0
0.38866400718688965,2.2870765482872433e+76,3346.0
0.3729816675186157,2.0803871897413675e+76,3562.0
0.38140594959259033,2.0131558982280113e+76,3471.0
0.38440120220184326,1.9149592315551445e+76,3395.0
0.37921035289764404,1.7720268254116506e+76,3470.0
0.3748292922973633,1.634949860868774e+76,3488.0
0.3812621831893921,1.556718566027903e+76,3353.0
0.38401830196380615,1.4587827853669448e+76,3433.0
0.37484705448150635,1.2994911698576532e+76,3609.0
0.3875439167022705,1.2532515398580605e+76,3420.0
0.4112586975097656,1.2605839551768908e+76,3084.0
0.39820802211761475,1.083953772495192e+76,3138.0
0.3490414619445801,7.352678846104472e+75,3602.0
0.269974946975708,2.526218608330363e+75,4490.0
0.33789002895355225,4.706632117701131e+75,3365.0
0.3493763208389282,4.1892219975749364e+75,3131.0
0.36364996433258057,3.7848417773701305e+75,2801.0
0.3741941452026367,3.1973030126141966e+75,2161.0
0.08177313208580017,1.796171722287604e+75,920.0
0.09910136461257935,2.3811180185720248e+75,2589.0
0.10897745192050934,2.626115347672103e+75,3027.0
0.02590125799179077,4.183347748715524e+75,3706.0
0.08596616983413696,9.336609989601633e+75,5960.0
0.39271414279937744,2.659314645580411e+76,2671.0
0.3841123580932617,2.5209280746682306e+76,2713.0
0.3915557861328125,2.445820510223917e+76,2697.0
0.39231324195861816,2.3448400241620722e+76,2955.0
0.3958747386932373,2.2544827060772075e+76,3228.0
0.4003472328186035,2.1672739646757486e+76,3522.0
0.39904141426086426,2.0593185737558373e+76,3590.0
0.40629637241363525,1.9816069804148796e+76,3615.0
0.4039243459701538,1.8705133654310826e+76,3585.0
0.3986046314239502,1.7503270447227064e+76,3648.0
0.40861713886260986,1.6810631889102204e+76,3551.0
0.37617433071136475,1.475842867074259e+76,4001.0
0.3976649045944214,1.4430288591557606e+76,3740.0
0.40272271633148193,1.3576097405820245e+76,3681.0
0.41743040084838867,1.3003307673007403e+76,3522.0
0.39913809299468994,1.1459387015230354e+76,3755.0
0.39531445503234863,1.0352067380478102e+76,3837.0
0.39240002632141113,9.277986556131994e+75,3849.0
0.3816303014755249,8.000707966716852e+75,3960.0
0.400049090385437,7.501245837965486e+75,3821.0
0.40185654163360596,6.557587314334679e+75,3728.0
0.40068209171295166,5.540470053461807e+75,3738.0
0.4063084125518799,4.690119689566435e+75,3725.0
0.40601348876953125,3.696758239619216e+75,3780.0
0.3899606466293335,2.3512731419319157e+75,3956.0
0.4150944948196411,1.9291140231377773e+75,3676.0
0.40678417682647705,7.676122286900465e+74,3801.0
0.4062836170196533,1.4253307109986856e+76,3773.0
0.392916202545166,1.3013774171342311e+76,3949.0
0.40118086338043213,1.2206594230846114e+76,3835.0
0.39657139778137207,1.1153591339843104e+76,3969.0
0.3899266719818115,1.0072786489118636e+76,3920.0
0.40202009677886963,9.32086365531143e+75,3842.0
0.40913331508636475,8.472844356244687e+75,3827.0
0.4013427495956421,7.384166338375117e+75,3855.0
0.41035163402557373,6.558206746069303e+75,3743.0
0.39649641513824463,5.3960320313527605e+75,3962.0
0.39647769927978516,4.4415895290550935e+75,3873.0
0.41628825664520264,3.7435313746114156e+75,3655.0
0.40325629711151123,2.61963547057076e+75,3912.0
0.41603267192840576,1.811475482093319e+75,3699.0
0.44171833992004395,1.1267394235355334e+75,3348.0
0.4036264419555664,6.998344914096831e+75,3907.0
0.40930116176605225,6.099809145363048e+75,3742.0
0.403964638710022,5.097744593272526e+75,3845.0
0.3935873508453369,4.062877766232295e+75,3920.0
0.4260658025741577,3.361324739982261e+75,3510.0
0.3926318883895874,2.171271283616151e+75,3989.0
0.4170478582382202,1.378784298373978e+75,3517.0
0.4034719467163086,3.485580330336705e+74,3719.0
0.40782594680786133,3.040486277073035e+75,3710.0
0.4101353883743286,2.1001962370186085e+75,3674.0
0.39640486240386963,1.1029447902866796e+75,3791.0
0.4056159257888794,1.8663184840015033e+74,3731.0
0.37778759002685547,9.921025282776498e+74,4027.0
0.38790440559387207,7.759892233184636e+73,3954.0
0.4069753885269165,6.035943835543021e+73,3735.0
0.3890000581741333,2.9028768724554445e+72,4006.0
0.37997758388519287,6.89830631017685e-05,4013.0
0.17592179775238037,0.005744636058807373,7309.0
0.411862850189209,0.00019340775907039642,55.0
0.2248055338859558,0.0011665262281894684,5115.0
0.20770269632339478,0.0048899538815021515,3142.0
0.2065720558166504,0.008971629664301872,3452.0
0.2034195065498352,0.012959640473127365,3889.0
0.21023374795913696,0.0017509572207927704,3884.0
0.20703381299972534,0.005725257098674774,3973.0
0.18484389781951904,0.008560825139284134,4199.0
0.19358235597610474,0.013118546456098557,4011.0
0.19431006908416748,0.01722211018204689,3920.0
0.17806196212768555,0.020053062587976456,4090.0
0.19070905447006226,0.025052767246961594,3869.0
0.19535088539123535,0.029504980891942978,3898.0
0.17706340551376343,0.0006278827786445618,3913.0
0.1010553240776062,0.02831985056400299,3415.0
0.006217837333679199,0.021896060556173325,1759.0
0.24993667006492615,0.024178732186555862,1299.0
0.23967325687408447,0.025926239788532257,458.0
0.21948117017745972,0.026338733732700348,3047.0
3.054598346352577e-05,1.090715522877872e-05,0.0
2.9028858989477158e-05,2.24421382881701e-05,0.0
2.744467929005623e-05,3.396809916011989e-05,0.0
2.579321153461933e-05,4.548465949483216e-05,0.0
2.4074921384453773e-05,5.6991411838680506e-05,0.0
0.0808819830417633,0.02111528441309929,2330.0
0.07070395350456238,0.02141861617565155,3334.0
0.043774962425231934,0.018752846866846085,3936.0
0.03953978419303894,0.019766822457313538,4049.0
0.04317334294319153,0.02216726541519165,116.0
0.043840378522872925,0.02405676618218422,4040.0
0.044495344161987305,0.02595582604408264,4076.0
0.03435233235359192,0.025704048573970795,92.0
0.03989240527153015,0.028569761663675308,3945.0
0.04051768779754639,0.03046288713812828,4005.0
0.03038427233695984,0.030017077922821045,115.0
0.03197452425956726,0.0008353888988494873,4025.0
0.03257572650909424,0.002699427306652069,4071.0
0.04970702528953552,0.00849093496799469,3781.0
0.0007031261920928955,0.029675833880901337,2956.0
0.07585777342319489,0.018801622092723846,3014.0
0.09009677171707153,0.023680727928876877,2081.0
0.024954527616500854,0.0079755038022995,2322.0
0.04017917811870575,0.012986205518245697,2232.0
0.036061301827430725,0.012889105826616287,2367.0
0.04928220808506012,0.0176040418446064,2429.0
0.024962589144706726,0.011729326099157333,2076.0
0.038145557045936584,0.016536295413970947,2177.0
0.028284534811973572,0.014617793262004852,2431.0
0.032796844840049744,0.016969900578260422,2647.0
0.04015070199966431,0.02026941254734993,2418.0
0.040801092982292175,0.02153259515762329,2403.0
0.00910496711730957,0.012302946299314499,3351.0
0.030682921409606934,0.02031382918357849,3173.0
0.03701242804527283,0.023458100855350494,3539.0
0.03763699531555176,0.024725060909986496,3429.0
0.031646713614463806,0.023684609681367874,3554.0
0.0350913405418396,0.02594057470560074,3639.0
0.041334137320518494,0.029264092445373535,3658.0
0.016598165035247803,0.021199602633714676,3991.0
0.03406895697116852,0.028725560754537582,3971.0
0.023447439074516296,0.025709297508001328,3971.0
0.0156613290309906,0.023662596940994263,3796.0
0.015339508652687073,0.02447991445660591,3735.0
0.012231230735778809,0.024171926081180573,3725.0
0.06053084880113602,0.019271381199359894,3.0
0.006963074207305908,0.02383856475353241,36.0
0.0011170059442520142,0.02226170152425766,3716.0
0.05871221423149109,0.021014709025621414,4049.0
0.051078490912914276,0.018508698791265488,153.0
0.05078711360692978,0.019168559461832047,3878.0
0.052314355969429016,0.020650528371334076,3869.0
0.05019287019968033,0.02048313617706299,3873.0
0.04445180296897888,0.018602918833494186,3765.0
0.03873659670352936,0.016657743602991104,304.0
0.03575202077627182,0.01594684273004532,3.0
0.05165529251098633,0.024405818432569504,3742.0
0.030714794993400574,0.014869440346956253,104.0
0.04295675456523895,0.0216921828687191,4014.0
0.04353807121515274,0.022758595645427704,3921.0
0.022788412868976593,0.012816838920116425,161.0
0.03758814185857773,0.021203458309173584,4071.0
0.034632258117198944,0.020376794040203094,38.0
0.028168365359306335,0.01761971041560173,172.0
0.02788255363702774,0.018146317452192307,4085.0
0.024969585239887238,0.017217230051755905,386.0
0.021198712289333344,0.015766222029924393,330.0
0.019185803830623627,0.015262685716152191,365.0
0.3977222442626953,3.5556761916712966e+76,3028.0
0.3676377534866333,3.232102307869349e+76,3515.0
0.3860950469970703,3.230597727165749e+76,3261.0
0.39147770404815674,3.14269501516912e+76,3199.0
0.38190317153930664,2.959932630858298e+76,3327.0
0.36867189407348633,2.7567811074897872e+76,3621.0
0.3853031396865845,2.7405599330509253e+76,3413.0
0.3886793851852417,2.6417269253648845e+76,3297.0
0.373348593711853,2.4310635412725267e+76,3514.0
0.38101911544799805,2.359448260479689e+76,3448.0
0.38687682151794434,2.2766825182889767e+76,3417.0
0.39359426498413086,2.1985402559759792e+76,3315.0
0.38589978218078613,2.0385391409422376e+76,3384.0
0.3871051073074341,1.930007109115052e+76,3366.0
0.3990941047668457,1.881041289308477e+76,3226.0
0.38026702404022217,1.6643154112250984e+76,3429.0
0.3803534507751465,1.5518845828866108e+76,3470.0
0.38310718536376953,1.4540116081174084e+76,3474.0
0.3702794313430786,1.2759389604492304e+76,3674.0
0.35915184020996094,1.1091403154385348e+76,3831.0
0.3984041213989258,1.196366656293178e+76,3310.0
0.3899238109588623,1.0432286378266849e+76,3304.0
0.3250504732131958,6.192308938057615e+75,3884.0
0.27552473545074463,2.7902656200658763e+75,4333.0
0.343453049659729,4.9669314811703375e+75,3267.0
0.35216426849365234,4.317497855176386e+75,3175.0
0.3534039258956909,3.321389510183144e+75,2993.0
0.36952638626098633,2.9897882052052447e+75,2286.0
0.11358438432216644,3.1858918377480717e+75,1545.0
0.09253771603107452,2.099416339681421e+75,3106.0
0.09488242864608765,2.03195090642325e+75,3131.0
0.18598049879074097,3.572485394898905e+75,1637.0
0.047279179096221924,7.764573342644346e+75,4806.0
0.39555060863494873,2.6706266078428006e+76,2677.0
0.3926386833190918,2.5542897361593468e+76,2642.0
0.38775885105133057,2.4312481629873034e+76,2774.0
0.4046766757965088,2.3913667668096914e+76,2796.0
0.3768184185028076,2.1841853137492895e+76,3551.0
0.3974834680557251,2.1569220353301975e+76,3530.0
0.38469719886779785,2.0085244813419975e+76,3767.0
0.40629637241363525,1.9816069804148796e+76,3617.0
0.39912617206573486,1.854227314576561e+76,3723.0
0.39572083950042725,1.7407494913172652e+76,3666.0
0.3999518156051636,1.6529137262602004e+76,3673.0
0.39353322982788086,1.5309736718051047e+76,3763.0
0.39476728439331055,1.4340355385785752e+76,3812.0
0.4036900997161865,1.3605426376920932e+76,3683.0
0.4087107181549072,1.2745234122735037e+76,3626.0
0.4146624803543091,1.1907734810537389e+76,3614.0
0.39337098598480225,1.0297329630201706e+76,3885.0
0.3972651958465576,9.411549151435085e+75,3761.0
0.3981943130493164,8.44367239987339e+75,3787.0
0.408829927444458,7.729848931337056e+75,3749.0
0.408694863319397,6.730783188034215e+75,3723.0
0.3879663944244385,5.227375781312826e+75,3929.0
0.4082670211791992,4.736968743768449e+75,3761.0
0.39915013313293457,3.5374038182181686e+75,3859.0
0.41940903663635254,3.014392930931553e+75,3611.0
0.4072328805923462,1.7575745685614712e+75,3795.0
0.4117029905319214,8.715111181946317e+74,3674.0
0.41022276878356934,1.4333774570644087e+76,3686.0
0.4067171812057495,1.3286122258496427e+76,3769.0
0.4140084981918335,1.2450853935805379e+76,3700.0
0.41237425804138184,1.144357856522303e+76,3690.0
