X,Y,Z
0.008031342178583145,2.1620432173913454e+74,2215.0
0.02919745072722435,1.258923395005853e+75,1983.0
0.011904951184988022,3.4662921060931587e+74,2293.0
0.005615465342998505,1.539289154619206e+75,1902.0
0.0030143260955810547,1.3594622124374178e+75,2114.0
0.020547956228256226,6.551672517715479e+74,2369.0
0.02808815985918045,9.673052006923513e+74,2272.0
0.02265070751309395,6.707386699277741e+74,2453.0
0.020911473780870438,5.50126770285289e+74,2488.0
0.007959343492984772,8.385269175248129e+74,2757.0
0.020209375768899918,4.388244637463309e+74,2513.0
0.009691890329122543,1.8194060200049278e+74,2859.0
0.02137143164873123,4.089603916241948e+74,2541.0
0.02148197963833809,3.734782979757712e+74,2563.0
0.014569710940122604,3.2233064203735967e+74,2749.0
0.016024749726057053,7.605638202333866e+73,2533.0
0.006644930690526962,5.781204691474448e+74,2544.0
0.013363316655158997,8.075793790660173e+74,2458.0
0.018203746527433395,5.182370356103698e+73,2363.0
0.019249223172664642,5.362980430816274e+73,2253.0
0.015523694455623627,7.861835340318199e+74,2274.0
0.016564127057790756,7.885119028657817e+74,2157.0
0.02718602493405342,2.1704956998704305e+74,1892.0
0.000417463481426239,1.7025745519238972e+74,2330.0
0.0009418576955795288,2.9781747228993296e+74,1884.0
0.030370984226465225,1.924942348830289e+74,1874.0
0.007899954915046692,4.266077256737916e+74,1718.0
0.007386211305856705,2.944983793358467e+74,2066.0
0.011315379291772842,3.8576146535689835e+74,1999.0
0.028818819671869278,8.732159573820756e+74,1767.0
0.008531317114830017,2.442673615841183e+74,2058.0
0.02316337451338768,6.279683321371397e+74,1806.0
0.004638791084289551,3.393135751612912e+73,1772.0
0.014544516801834106,3.2005004622889206e+74,1954.0
0.025337349623441696,5.685851673704203e+74,1832.0
0.027364209294319153,5.79929373729024e+74,1881.0
0.017656497657299042,2.9958151552025796e+74,1904.0
0.0001766979694366455,5.945672228520601e+74,1841.0
0.007114335894584656,7.116779959805624e+74,1775.0
0.013904094696044922,1.121594171634001e+74,2083.0
0.024764161556959152,3.1759431860687465e+74,1984.0
0.0100681371986866,4.2045406392712114e+74,2173.0
0.028822340071201324,3.2252162629954977e+74,1920.0
0.02198246493935585,1.4586290921029847e+74,2115.0
0.01414036750793457,4.1198847891395584e+74,2151.0
0.028010457754135132,1.82825643129682e+74,1963.0
0.03102978691458702,1.95266364439132e+74,1922.0
0.008327137678861618,2.1938440920820496e+74,2232.0
0.019253022968769073,3.7009730498413716e+74,2008.0
0.00588236004114151,1.6200393711970822e+74,1900.0
0.00494297593832016,1.0113441657333552e+74,1833.0
0.010436460375785828,1.40822801100768e+74,2193.0
0.028343647718429565,3.548963164951176e+74,1915.0
0.007511574774980545,4.6272542702484e+73,2238.0
0.02444266900420189,2.261026661579789e+74,1922.0
0.003176845610141754,3.030224135133864e+74,1833.0
0.015240516513586044,1.0783754899302919e+74,2225.0
0.028521176427602768,1.5387664551732233e+74,1785.0
0.017587173730134964,9.854022266523562e+72,2054.0
0.009632490575313568,1.3302307285038797e+74,1979.0
0.01730457693338394,1.947814089184833e+74,1549.0
0.0306226946413517,7.516756650161604e+72,1804.0
0.01267530769109726,7.059208611294724e+73,2036.0
0.00934060662984848,3.871513045274833e+73,2230.0
0.006424963474273682,1.463730453211343e+74,1667.0
0.0044441744685173035,9.048817627399774e+73,1739.0
0.013453438878059387,8.186705932850964e+73,1619.0
0.007470175623893738,1.0422904101147107e+73,1654.0
0.00948033481836319,8.17793181820814e+73,1710.0
0.006489373743534088,2.7192786246541486e+73,1816.0
0.02274627983570099,1.6868622950062818e+73,1964.0
0.01049872487783432,2.179719439023796e+73,1768.0
0.026750002056360245,2.697237351756753e+71,1953.0
0.0074988603591918945,0.0001556446950417012,1870.0
0.011495083570480347,0.00036480388371273875,1847.0
0.0004905238747596741,0.00011615641415119171,2079.0
0.02973364293575287,0.00043624185491353273,2095.0
0.002472713589668274,0.0009068726794794202,2087.0
0.006726998835802078,0.00034546293318271637,2499.0
0.026702173054218292,0.0004018594045192003,2373.0
0.02369072660803795,0.0005996916443109512,2407.0
0.023674946278333664,0.0009192468132823706,2396.0
0.005385398864746094,4.0012411773204803e-05,2203.0
0.000371493399143219,0.00011564698070287704,2302.0
0.02029847353696823,0.0018741884268820286,1993.0
0.0053061991930007935,0.001224056351929903,2202.0
0.004278510808944702,0.0015371632762253284,2199.0
0.005241923034191132,0.0020125736482441425,2185.0
0.007197707891464233,0.002592208329588175,2092.0
0.002183102071285248,0.002504413016140461,2238.0
0.022035397589206696,0.0010625794529914856,1888.0
0.00906151533126831,0.00012163259088993073,2007.0
0.0010681301355361938,0.003516223281621933,2165.0
0.023852773010730743,0.002779930830001831,1740.0
0.01188766211271286,0.0017517916858196259,1909.0
0.016321692615747452,0.0024917363189160824,2375.0
0.007810220122337341,0.0020603593438863754,2085.0
0.019625112414360046,0.004206948913633823,1941.0
0.01955380290746689,0.004684478975832462,1954.0
0.002688683569431305,0.0025042425841093063,2153.0
0.01841607689857483,0.005476196296513081,1884.0
0.006507538259029388,0.003933134488761425,2117.0
0.023900434374809265,0.0019049905240535736,2370.0
0.00046340376138687134,0.0036596646532416344,2278.0
0.007274806499481201,0.005320544354617596,2132.0
0.005233928561210632,0.005344840697944164,2242.0
0.011039391160011292,0.006916995160281658,2182.0
0.017718307673931122,0.002292189747095108,2462.0
0.00303766131401062,0.0061092618852853775,2198.0
0.018574386835098267,0.00307468231767416,2446.0
0.014607448130846024,0.0024877190589904785,2553.0
0.005707934498786926,0.0001127924770116806,2263.0
0.01837681233882904,0.003942491486668587,2410.0
0.0026050731539726257,0.000196823850274086,2225.0
0.014355383813381195,0.0035518771037459373,2460.0
0.006292209029197693,0.0019429344683885574,2153.0
0.01808987930417061,0.005093956366181374,2311.0
0.019945885986089706,0.005898137576878071,2148.0
0.021794140338897705,0.0067243315279483795,2275.0
0.02170868217945099,0.007032651454210281,2028.0
0.02546662464737892,0.0006300024688243866,2150.0
0.004677578806877136,0.004051709547638893,1854.0
0.002645924687385559,0.0038688108325004578,1920.0
0.013051219284534454,0.00746210478246212,1706.0
0.0052786096930503845,0.005518805235624313,1740.0
0.016589023172855377,0.009552905336022377,1593.0
0.028669238090515137,0.003834826871752739,1777.0
0.0011021718382835388,0.005440710112452507,1748.0
0.004752762615680695,0.00434485636651516,2126.0
0.0008527860045433044,0.006179237738251686,1650.0
0.011105075478553772,0.010187646374106407,1611.0
0.02713625878095627,0.005232740193605423,1760.0
0.00234212726354599,0.007965240627527237,1577.0
0.010643422603607178,0.011468172073364258,1409.0
0.02769908308982849,0.0066012367606163025,1598.0
0.03036968782544136,0.008018480613827705,1424.0
0.0017757117748260498,0.009467510506510735,1394.0
0.027302246540784836,0.0076265521347522736,1520.0
0.008897334337234497,0.013209382072091103,1138.0
0.030727948993444443,0.009825620800256729,1298.0
0.015016771852970123,0.0011097155511379242,979.0
0.02030147612094879,0.006248395889997482,1448.0
0.007288850843906403,0.014466803520917892,1318.0
0.027371156960725784,0.010056909173727036,1529.0
0.01058845967054367,0.0012781023979187012,1665.0
0.004930652678012848,0.014856262132525444,2035.0
0.030198976397514343,0.011304676532745361,1937.0
0.016354292631149292,0.005505967885255814,2408.0
0.011619649827480316,0.003825310617685318,2542.0
0.01592133939266205,0.006420876830816269,2757.0
0.017498590052127838,0.007752895355224609,2896.0
0.014581464231014252,0.006887231022119522,2996.0
0.01078350841999054,0.005540329962968826,3154.0
0.007003948092460632,0.004150591790676117,3072.0
0.013904206454753876,0.008226543664932251,2714.0
0.015444748103618622,0.009598713368177414,2361.0
0.01167372614145279,0.008174099028110504,2064.0
0.025527536869049072,0.016196317970752716,1500.0
0.026127547025680542,0.01718716323375702,1125.0
0.02934306114912033,0.019640594720840454,804.0
0.02817361056804657,0.019684243947267532,639.0
0.01657881587743759,0.013778239488601685,889.0
0.00858595222234726,8.542116752968278e+74,1812.0
0.011325761675834656,9.992850894289254e+74,1823.0
0.017568439245224,1.3676750749105252e+75,1743.0
0.008981287479400635,7.733117770950555e+74,1902.0
0.01420656032860279,7.953766601657449e+73,1986.0
0.006379369646310806,4.693912199183996e+74,2109.0
0.005832687020301819,4.741577384891519e+74,1895.0
0.017460059374570847,1.1481671891465847e+75,1810.0
0.01583116129040718,1.0089593966909657e+75,1820.0
0.01864488422870636,1.134922306547947e+75,1693.0
0.0044942498207092285,2.6968854233529466e+74,1977.0
0.014456309378147125,8.106545384226592e+74,1827.0
0.013688385486602783,7.290571324807144e+74,1873.0
0.004802115261554718,1.9714558056161907e+74,1977.0
0.009421341121196747,4.205874617432302e+74,2029.0
0.0158766470849514,7.357507480392345e+74,1921.0
0.021456055343151093,9.939506865415763e+74,1877.0
0.021595988422632217,9.584015165458448e+74,1927.0
0.006204303354024887,1.2199720954203004e+74,2164.0
0.0127117820084095,4.2214833481547155e+74,2127.0
0.00823219120502472,1.6314995053263546e+74,2226.0
0.0055460259318351746,1.3613705453023054e+74,2622.0
0.020423274487257004,6.900156788335069e+74,2280.0
0.014073211699724197,3.4711492100847125e+74,2453.0
0.017889413982629776,4.900845965822378e+74,2446.0
0.024509351700544357,7.562554050764026e+74,2510.0
0.011596925556659698,1.2880923318631233e+74,2616.0
0.022896233946084976,5.979591076621476e+74,2582.0
0.02582312747836113,6.840691773170268e+74,2472.0
0.02407209575176239,5.650973051501977e+74,2549.0
0.03076811507344246,8.050695158710923e+74,2443.0
0.022423624992370605,4.1245569478969756e+74,2501.0
0.004606220871210098,5.523849354181295e+74,2689.0
0.025479700416326523,4.531179804305342e+74,2332.0
0.0293818898499012,5.631423854974693e+74,2269.0
0.00014848262071609497,5.951216271953234e+74,2273.0
0.015350647270679474,8.490796876890556e+74,2420.0
0.020202036947011948,8.877845733620705e+73,2218.0
0.018387388437986374,8.897025039679715e+74,2297.0
0.0025272145867347717,4.934157675924309e+74,2027.0
0.008026670664548874,4.573142422093828e+74,2203.0
0.014811765402555466,6.588407062646272e+74,2136.0
0.005748063325881958,4.574440813125318e+74,1799.0
0.029408153146505356,1.6121703019638743e+74,1897.0
0.0030780360102653503,2.734666014214425e+74,1743.0
0.014147546142339706,5.043450064519338e+74,2005.0
0.030663277953863144,6.767528948302821e+73,1861.0
0.025912266224622726,7.871914046780246e+74,1836.0
0.025996290147304535,7.486594940228263e+74,1815.0
0.013446703553199768,3.5429090393276007e+74,1973.0
0.02421247586607933,6.180035044898141e+74,1814.0
0.023313678801059723,5.545624363905419e+74,1841.0
0.030215568840503693,6.955860351740869e+74,1869.0
2.1822750568389893e-05,6.78899661463494e+74,1896.0
0.028415929526090622,5.645070979977605e+74,1885.0
0.016736846417188644,2.431938165078324e+74,2085.0
0.027579016983509064,4.612647371144138e+74,1988.0
0.012922480702400208,9.00552804103633e+73,2101.0
0.01198900118470192,3.884238140101728e+73,2182.0
0.015970725566148758,9.282212581691964e+73,2105.0
0.011359430849552155,6.04161944351539e+74,1797.0
0.01015302911400795,3.647338931941742e+74,2248.0
0.024007834494113922,1.4756720919880906e+74,2066.0
0.01813371106982231,1.5837351070150972e+72,2096.0
0.002745486795902252,2.4764220770791223e+74,1971.0
0.020200278609991074,4.2089356497768903e+74,2168.0
0.009350467473268509,2.0884037406668234e+74,2286.0
0.00839194655418396,1.6602317988874038e+74,2214.0
0.02925032004714012,4.499131437304233e+74,2068.0
0.022346876561641693,3.1029011417623686e+74,2042.0
7.332861423492432e-05,3.952567585730688e+74,1901.0
0.00011485069990158081,3.5309431365988526e+74,1981.0
0.020464621484279633,1.7764437273940233e+74,2086.0
0.022485602647066116,1.6568876871028104e+74,1999.0
0.001222357153892517,2.3722305103935186e+74,1773.0
0.009225413203239441,2.7511460904131207e+74,1748.0
0.0012873262166976929,1.5133367550789e+74,1878.0
0.016612429171800613,1.9434638321906215e+74,1997.0
0.02461320161819458,6.531316679583914e+71,1916.0
0.017649386078119278,1.3725729423414398e+74,2011.0
0.020661722868680954,1.2454635337924913e+74,2035.0
0.016391322016716003,2.7354101087424382e+73,1590.0
0.02768583595752716,9.238327180507176e+73,1915.0
0.023704174906015396,3.377571774401966e+73,1880.0
0.002460174262523651,3.728471656242932e+73,1729.0
0.025725718587636948,7.956496296257498e+73,1874.0
0.008480608463287354,7.907295741587282e+73,1744.0
0.0004902929067611694,1.4995297575922522e+73,1785.0
0.018746554851531982,1.1431010646885204e+73,2004.0
0.028748948127031326,1.2881196288091238e+73,1881.0
0.019750002771615982,1.8386083346934226e+71,1984.0
0.027749042958021164,9.282131213694811e-05,2038.0
0.00249568372964859,0.00026105029974132776,1975.0
0.008489318192005157,0.0002549143973737955,1962.0
0.026734445244073868,0.00036675960291177034,2257.0
0.006471030414104462,4.621385596692562e-05,2115.0
0.01672094315290451,0.0006933641852810979,2469.0
0.005443930625915527,0.0008078913670033216,2234.0
0.007424555718898773,0.0012959141749888659,2214.0
0.015393555164337158,0.00016729533672332764,2146.0
0.0003938227891921997,0.0017029708251357079,2327.0
0.028627611696720123,0.0018772529438138008,2361.0
0.0013446062803268433,0.0005509555339813232,2335.0
0.004309043288230896,0.0011486108414828777,2230.0
0.015242144465446472,0.002430858090519905,2068.0
0.01656782627105713,0.00027174316346645355,2458.0
0.0022193044424057007,0.0021280329674482346,2194.0
0.0051684752106666565,0.0028002895414829254,2134.0
0.008111923933029175,0.0035070516169071198,2004.0
0.008067600429058075,1.1436641216278076e-05,2132.0
0.009014151990413666,0.0005377829074859619,2109.0
0.013927169144153595,0.0015624100342392921,1993.0
0.0019693151116371155,0.0004765531048178673,2066.0
0.003902152180671692,0.0011180220171809196,2158.0
0.0028587952256202698,0.0013650869950652122,2077.0
0.01071997731924057,0.0029036346822977066,2010.0
0.02905460074543953,0.0013720272108912468,2272.0
0.01615995541214943,0.003596835769712925,2379.0
0.029930446296930313,0.002235051244497299,2219.0
0.022970210760831833,0.0014162138104438782,2343.0
0.01897628977894783,0.0010373573750257492,2445.0
0.030729595571756363,0.003480411134660244,2247.0
0.006292060017585754,0.005135571584105492,2216.0
0.02764906734228134,0.003628665581345558,2375.0
0.0071172937750816345,0.006131421774625778,2168.0
0.008014366030693054,0.006738253869116306,2252.0
0.007928535342216492,0.007148199714720249,2226.0
0.0010016709566116333,0.0060633206740021706,2354.0
0.0028712600469589233,0.006870790384709835,2288.0
0.002784736454486847,0.0072508156299591064,2329.0
0.0036690831184387207,4.832260310649872e-05,2215.0
0.008435375988483429,0.001613706350326538,2217.0
0.017066843807697296,0.0042022112756967545,2038.0
0.011136732995510101,0.0031801145523786545,2048.0
0.0003841593861579895,0.0008244048804044724,2273.0
0.02187780663371086,0.006415520794689655,2315.0
0.025651898235082626,0.007781555876135826,2211.0
0.00682772696018219,0.0038086529821157455,2045.0
0.027389220893383026,0.0011810194700956345,2049.0
0.0272904671728611,0.0015218481421470642,2036.0
0.012226209044456482,0.006735548377037048,1886.0
0.029956046491861343,0.003078477457165718,1803.0
0.0052786096930503845,0.005518805235624313,1901.0
0.0003900676965713501,0.0043959841132164,1778.0
0.01250055804848671,0.006396263837814331,2045.0
0.023808594793081284,0.0026109889149665833,1893.0
0.006663203239440918,0.007729921489953995,1718.0
0.026429403573274612,0.004226621240377426,1832.0
0.009217768907546997,0.009525785222649574,1677.0
0.029961399734020233,0.006241984665393829,1662.0
0.0051613450050354,0.008990904316306114,1616.0
0.02970285713672638,0.006952645257115364,1633.0
0.007113691419363022,0.006652194075286388,1946.0
5.332380533218384e-05,0.008376715704798698,1528.0
0.0027072355151176453,0.009831169620156288,1509.0
0.009993255138397217,0.013162637129426003,1311.0
0.02902047708630562,0.008715711534023285,1419.0
0.0048267170786857605,0.00700204074382782,1708.0
0.0011744946241378784,0.01095619611442089,1287.0
0.023983724415302277,0.00781078077852726,1248.0
0.012798495590686798,0.0012174732983112335,1017.0
0.004364758729934692,0.013668427243828773,1072.0
0.029047977179288864,0.01121068187057972,1334.0
0.017044927924871445,0.006206175312399864,1731.0
0.008387453854084015,0.001291811466217041,1565.0
0.02222590148448944,0.009301459416747093,2041.0
0.02750338613986969,0.012178601697087288,2420.0
0.00871017575263977,0.0029568858444690704,2449.0
0.003116823732852936,0.0007411390542984009,2684.0
0.0056185051798820496,0.002452671527862549,2848.0
0.0018464922904968262,0.0010537058115005493,2974.0
0.016805782914161682,0.009142983704805374,2648.0
0.028274208307266235,0.015129981562495232,2753.0
0.020759157836437225,0.012383848428726196,2107.0
0.02933412790298462,0.01756078377366066,1637.0
0.018485337495803833,0.012400615960359573,1387.0
0.02437254786491394,0.01622801274061203,1016.0
0.036340631544589996,0.023517973721027374,678.0
0.02642989158630371,0.018704738467931747,507.0
0.027875781059265137,0.02021084353327751,460.0
0.020709935575723648,1.6648306265898863e+75,1571.0
0.010456867516040802,9.419678114554165e+74,1855.0
0.00013328343629837036,2.3305860199757043e+74,1908.0
0.021225590258836746,1.559308963975512e+75,1680.0
0.016129538416862488,1.1905898514649996e+75,1808.0
0.010118216276168823,7.739005823302661e+74,1837.0
0.025256946682929993,1.6702290863105166e+75,1656.0
0.0015185810625553131,1.8028461423640972e+74,2031.0
0.01583116129040718,1.0089593966909657e+75,1853.0
0.010626062750816345,6.617517334659595e+74,1881.0
0.009855888783931732,5.815295004836127e+74,1856.0
0.017144914716482162,9.647666521141724e+74,1849.0
0.01997976005077362,1.0844205030918937e+75,1729.0
0.0020982064306735992,4.666572656467772e+73,2116.0
0.001670338213443756,1.7089386090943581e+75,1673.0
0.005907546728849411,1.9738498488802337e+74,2079.0
0.009642627090215683,3.6564675698832393e+74,1988.0
0.017040301114320755,7.198107334921751e+74,1981.0
0.011685419827699661,4.046189774924902e+74,2160.0
0.019122879952192307,7.475611457956066e+74,2080.0
0.022923238575458527,8.970669908393571e+74,2159.0
0.011092051863670349,2.722741090604611e+74,2318.0
0.009350430220365524,1.5445849508629277e+74,2454.0
0.027022700756788254,9.632195825346246e+74,2327.0
0.01696225255727768,4.467008660850323e+74,2547.0
0.018933415412902832,4.997047682713705e+74,2480.0
0.017185654491186142,3.8159971230978364e+74,2598.0
0.023829791694879532,6.39462974998146e+74,2527.0
0.023016251623630524,5.614467126918922e+74,2618.0
0.018446117639541626,3.2363798377114314e+74,2614.0
0.0176127590239048,2.505167850613505e+74,2588.0
0.00829898938536644,7.324215181452014e+74,2647.0
0.021590743213891983,3.3792201055411956e+74,2412.0
0.030207179486751556,6.416488874739186e+74,2373.0
0.026539772748947144,4.5193648772779297e+74,2372.0
0.00489458441734314,7.772712227023799e+74,2124.0
0.019154783338308334,8.76135719606128e+73,2329.0
0.012959465384483337,1.4983540343180978e+74,2512.0
0.027933042496442795,3.3013986018896653e+74,2119.0
0.023258108645677567,1.2092549774211747e+74,2185.0
0.02048024907708168,8.891488545032149e+74,1971.0
0.0017945468425750732,3.7308727090931083e+74,1873.0
0.002864338457584381,3.616681158989725e+74,1815.0
0.003935128450393677,3.4888068967538295e+74,1791.0
0.02661297470331192,2.844101829725723e+73,1882.0
0.028636127710342407,4.939083797379331e+73,1789.0
0.004690295085310936,1.6355375661381605e+74,2320.0
0.005319632589817047,1.9798910337294088e+74,1638.0
0.015323251485824585,4.404198455503062e+74,1949.0
0.005516715347766876,1.0649114229652502e+74,1685.0
0.018261149525642395,4.079104634611893e+74,1434.0
0.027211084961891174,6.587901294046796e+74,1790.0
0.016556553542613983,3.3998347591607657e+74,2082.0
0.02834111452102661,6.046720265424815e+74,1803.0
0.008853327482938766,8.282419135508682e+73,2104.0
0.023592106997966766,4.0716809436976264e+74,1921.0
0.0011059567332267761,2.989268740952862e+74,2220.0
0.017830532044172287,2.0057542497661398e+74,1965.0
0.006289318203926086,5.963461479729453e+74,1842.0
0.01793825626373291,1.3438250120113238e+74,2150.0
0.002496294677257538,4.2310735403831544e+74,1890.0
0.025925610214471817,2.2367686407676202e+74,2007.0
0.028941571712493896,2.4151302559281554e+74,2077.0
0.01418301835656166,3.813998312651934e+74,2068.0
0.0007683560252189636,2.1272508670184541e+74,1965.0
0.03108398988842964,1.5329738410323193e+74,1911.0
0.005827620625495911,2.0804688891637477e+74,1907.0
0.02722187340259552,7.419916521733199e+72,2003.0
0.014373194426298141,2.2805429669721393e+74,2166.0
0.009443923830986023,1.2670048007790114e+74,2161.0
0.0020597875118255615,4.221638098248585e+74,1919.0
0.015462666749954224,1.485464483816533e+74,2113.0
0.0031377822160720825,3.47248264904687e+74,1839.0
0.026466015726327896,2.1146665031131616e+74,1978.0
0.0035981647670269012,1.509335090195095e+74,2235.0
0.015202529728412628,3.3573350992346694e+74,1595.0
0.013278631493449211,4.7370890929703715e+73,2241.0
0.02658376842737198,5.579474194542827e+73,1882.0
0.02461320161819458,6.531316679583914e+71,1905.0
0.001368589699268341,2.2349957546747883e+73,1818.0
0.006382867693901062,1.3042790838420805e+73,1797.0
0.01868121325969696,7.743026090549666e+73,1965.0
0.007423870265483856,1.517720172807512e+74,1757.0
0.0024458393454551697,8.103612681228139e+73,1796.0
0.009455889463424683,6.565528851904528e+73,1620.0
0.020727846771478653,6.266642795168496e+73,1985.0
0.012479513883590698,8.989838700073382e+73,1698.0
0.012488439679145813,3.939024795721378e+73,1692.0
0.013494767248630524,4.6775473767573026e+73,1744.0
0.024749018251895905,1.013781277512199e+73,2009.0
0.0247500017285347,2.4519144745606824e+71,1999.0
0.025749072432518005,8.139887358993292e-05,2089.0
0.00049581378698349,0.00023799389600753784,2093.0
0.0004905238747596741,0.00011615641415119171,2068.0
0.012738201767206192,4.2509520426392555e-05,2459.0
0.009469769895076752,0.00013314164243638515,2133.0
0.009725179523229599,0.00044983322732150555,2574.0
0.015711244195699692,0.000931787071749568,2551.0
0.026404082775115967,0.00022467132657766342,1954.0
0.005699507892131805,0.000955760246142745,2667.0
0.0013921409845352173,0.0017610043287277222,2300.0
0.005361296236515045,0.000434845220297575,2196.0
0.005334891378879547,0.0008295308798551559,2191.0
0.012286245822906494,0.001752176322042942,2101.0
0.0012884289026260376,0.0012934287078678608,2228.0
0.011219151318073273,0.0025348225608468056,2154.0
0.00819338858127594,0.0026850434951484203,2071.0
0.00019285082817077637,0.002307161223143339,2145.0
0.029416583478450775,0.002462924923747778,2246.0
0.02838459238409996,0.002705527003854513,2255.0
0.00802089273929596,0.000421806238591671,2009.0
0.023340832442045212,0.002790114376693964,2199.0
0.03271620720624924,0.004429792985320091,1757.0
0.029205694794654846,0.0003182748332619667,2145.0
0.013312816619873047,0.0023511964827775955,2433.0
0.022180791944265366,7.382594048976898e-06,2263.0
0.010656401515007019,0.0033293841406702995,2033.0
0.020110785961151123,0.0003158431500196457,2389.0
0.0016407966613769531,0.0027212239801883698,2234.0
0.025927674025297165,0.0019195973873138428,2389.0
0.007422871887683868,0.004507889039814472,2206.0
0.022859174758195877,0.0020463913679122925,2401.0
0.03066285327076912,0.0038407649844884872,2331.0
0.0022889673709869385,0.004772781394422054,2300.0
0.0071172937750816345,0.006131421774625778,2262.0
0.0060556307435035706,0.006334065459668636,2211.0
0.022549573332071304,0.00361581239849329,2464.0
0.011735748499631882,0.0015803631395101547,2583.0
0.023388661444187164,0.004460101015865803,2442.0
0.008631132543087006,0.000787271186709404,2223.0
0.0076729916036129,0.0014071017503738403,2666.0
0.028996482491493225,0.006828592158854008,2240.0
0.0005712807178497314,9.169243276119232e-05,2265.0
0.007261112332344055,0.002190370112657547,2078.0
0.014220084995031357,0.004081685096025467,2406.0
0.008354362100362778,0.0027938419952988625,2350.0
0.006939604878425598,0.0034050345420837402,2010.0
0.004901953041553497,0.0032688267529010773,2025.0
0.017776232212781906,0.0062384335324168205,2212.0
0.016733985394239426,0.0062422920018434525,2181.0
0.021441560238599777,0.0001420527696609497,2101.0
0.022305291146039963,0.000740543007850647,1958.0
0.016734153032302856,0.009092407301068306,1630.0
0.023064151406288147,0.0016658511012792587,1895.0
0.005842864513397217,0.00423405971378088,2124.0
0.0030007436871528625,0.006069539114832878,1709.0
3.110617399215698e-05,0.005490405485033989,1759.0
0.005580604076385498,0.007806422188878059,1642.0
0.01593274250626564,0.000921567901968956,1915.0
0.01095367968082428,0.010615380480885506,1485.0
0.00234212726354599,0.007965240627527237,1624.0
0.025951910763978958,0.0055632516741752625,1683.0
0.001127585768699646,0.008365225046873093,1661.0
0.027568794786930084,0.0069437772035598755,1543.0
0.019984260201454163,0.004376277327537537,1709.0
0.0072050541639328,0.012055419385433197,1203.0
0.02345704659819603,0.006468877196311951,1490.0
0.0078033506870269775,0.01324436254799366,1208.0
0.029656030237674713,0.009800489991903305,1147.0
0.012936979532241821,0.003123624250292778,1521.0
0.008207127451896667,0.014862749725580215,1299.0
0.007112622261047363,0.014872267842292786,1462.0
0.01058845967054367,0.0012781023979187012,1618.0
0.006753101944923401,5.508214235305786e-05,2023.0
0.029640503227710724,0.012327581644058228,2445.0
0.002758726477622986,0.014793731272220612,2576.0
0.00890795886516571,0.0025420673191547394,2563.0
0.018625520169734955,0.0077198706567287445,2682.0
0.008509986102581024,0.0033705495297908783,3127.0
0.024440720677375793,0.011765249073505402,2992.0
0.023295320570468903,0.011821601539850235,3012.0
0.022152245044708252,0.01186610758304596,2855.0
0.02900736778974533,0.016030047088861465,2426.0
0.03315945714712143,0.01888250559568405,2178.0
0.041696421802043915,0.024131469428539276,1607.0
0.01584450900554657,0.010977223515510559,1674.0
0.022617541253566742,0.015268858522176743,1300.0
0.02934306114912033,0.019640594720840454,914.0
0.019454993307590485,0.014786720275878906,812.0
0.02353079617023468,0.01773676648736,699.0
0.015513941645622253,1.3174223813616765e+75,1772.0
0.013063549995422363,1.1139192140167966e+75,1817.0
0.016696684062480927,1.3109444453764935e+75,1790.0
0.014985758811235428,1.5574221990679582e+74,1984.0
0.030167918652296066,2.7018007608293015e+74,1556.0
0.011660419404506683,7.991553662906128e+74,2065.0
0.011130210012197495,8.003588583098344e+74,1894.0
0.019231334328651428,1.2557095536835553e+75,1740.0
0.008359741419553757,5.310665193507601e+74,2048.0
0.03111860156059265,6.17141217555612e+73,1577.0
0.01789834350347519,1.0492910455458764e+75,1791.0
0.009196169674396515,4.911537202272703e+74,1417.0
0.027169905602931976,1.4905498846364644e+75,1726.0
0.007506024092435837,3.476252188789871e+74,2011.0
0.004902303218841553,1.728277086678492e+74,2102.0
0.011345237493515015,4.910389786942549e+74,1992.0
0.015094980597496033,6.556331196499563e+74,2013.0
0.005195509642362595,9.94748700962924e+73,2178.0
0.026301734149456024,1.1582767377876195e+75,1824.0
0.01729113981127739,6.545859953214042e+74,2038.0
0.014659520238637924,4.842386017469328e+74,2251.0
0.010171569883823395,2.2702345617644876e+74,2343.0
0.006705276668071747,1.5379812736864892e+75,2089.0
0.02887263149023056,1.0512347498607913e+75,2323.0
0.011399302631616592,1.8639869878137281e+74,2521.0
0.028226643800735474,9.272893067328063e+74,2435.0
0.010665468871593475,8.667752261232933e+73,2660.0
0.028497569262981415,8.46981017600698e+74,2566.0
0.018338125199079514,3.570762977826234e+74,2673.0
0.015633128583431244,2.0290832308161585e+74,2585.0
0.011974751949310303,1.2851267377297367e+73,2685.0
0.01771540939807892,2.1756892639963904e+74,2564.0
0.0016637593507766724,7.980308129952326e+74,2290.0
0.002739161252975464,7.924736131086261e+74,2220.0
0.0009606927633285522,3.557085657683055e+74,2607.0
0.013800805434584618,2.2470101853075373e+74,2709.0
0.0002682134509086609,5.528822925142451e+74,2193.0
0.02496611699461937,2.6452215383557525e+74,2211.0
0.02125108614563942,8.859577673759043e+73,2122.0
0.023258108645677567,1.2092549774211747e+74,2089.0
0.02335415408015251,8.417736499820445e+73,2078.0
0.020569488406181335,8.542741145333089e+74,2007.0
0.002864338457584381,3.616681158989725e+74,1826.0
0.026519671082496643,6.738520045688967e+73,1848.0
0.027577359229326248,5.906924314772705e+73,1834.0
0.024772506207227707,8.341040843541735e+74,1824.0
0.026793695986270905,8.549930823910285e+74,1852.0
0.012348335236310959,3.8574324043295136e+74,1967.0
0.013483282178640366,3.88340615614758e+74,2143.0
0.018305040895938873,4.911295641150565e+74,1843.0
0.009617086499929428,2.1731162066864775e+74,1982.0
0.006678946316242218,4.0790614986972255e+73,1608.0
0.025337349623441696,5.685851673704203e+74,1847.0
0.02834111452102661,6.046720265424815e+74,1866.0
0.028415929526090622,5.645070979977605e+74,1746.0
0.026530079543590546,4.774427540706508e+74,1816.0
0.0256180502474308,4.157349948625031e+74,1967.0
0.025683417916297913,3.774075484428284e+74,1910.0
0.027712270617485046,3.819216140729894e+74,1880.0
0.023840848356485367,2.5906341167419726e+74,1909.0
0.014903565868735313,1.7131940749160878e+74,2274.0
0.013110388070344925,4.2309430542412854e+74,2122.0
0.029928315430879593,2.603021673036595e+74,1957.0
0.0036741718649864197,3.0969494639361284e+74,1832.0
0.027075517922639847,1.254320145872117e+74,2005.0
0.029105138033628464,1.197126236614557e+74,2001.0
0.015292000025510788,3.0559450026521923e+74,2136.0
0.024248726665973663,4.133575589256071e+74,2046.0
0.02329946681857109,3.6116957256520356e+74,2115.0
0.013925179839134216,1.8278973248072136e+74,1790.0
0.02238428220152855,2.741754323392152e+74,2062.0
0.00949934497475624,7.184103260224966e+73,2210.0
0.0035579167306423187,1.978532522016851e+74,2281.0
0.024475809186697006,1.885777095107986e+74,1950.0
0.01952875405550003,9.716111355342419e+73,1920.0
0.015570756047964096,2.2535603739497883e+73,2020.0
0.007267385721206665,2.0792551523647925e+74,1776.0
0.025586634874343872,4.703426903561767e+73,1926.0
0.007329002022743225,1.1389455933089792e+74,1704.0
0.02064322680234909,1.5950712253897007e+74,1883.0
0.002389654517173767,2.1222206801692972e+74,1729.0
0.024672958999872208,1.138606706779373e+74,1845.0
0.014699973165988922,2.2196555450211796e+73,2027.0
0.02270500361919403,2.904969301316149e+73,1940.0
0.022716913372278214,1.0578057246219226e+74,1893.0
0.02372657135128975,7.280555165421364e+73,1897.0
0.021735526621341705,3.035858494387832e+73,1974.0
0.018487513065338135,5.1587723147859413e+73,1624.0
0.010494977235794067,4.2697269595179816e+73,1822.0
0.01974910870194435,6.708585068907096e+72,2068.0
0.016750000417232513,1.4706240188993167e+71,2126.0
0.027749042958021164,9.282131213694811e-05,2069.0
0.00049581378698349,0.00023799389600753784,1988.0
0.016488119959831238,0.0003936723805963993,1860.0
0.01447935402393341,0.0008068135939538479,2035.0
0.005471453070640564,1.7237849533557892e-05,2208.0
0.02271731197834015,0.0009021051228046417,2373.0
0.010439805686473846,0.0010109073482453823,2153.0
0.020693957805633545,0.00046044704504311085,2514.0
0.020386740565299988,0.0004284200258553028,2044.0
0.022658992558717728,0.0011806716211140156,2417.0
0.018334776163101196,0.0012647602707147598,2112.0
0.01830332726240158,0.0017349007539451122,2046.0
0.011627446860074997,0.0012910393998026848,2496.0
0.02057809755206108,0.00031848857179284096,2398.0
0.02154885232448578,0.000706950668245554,2367.0
0.012176118791103363,0.0030563841573894024,2048.0
0.0091489776968956,0.003194791730493307,1964.0
0.028422046452760696,0.0023585120216012,2122.0
0.01005542278289795,0.000231829471886158,1907.0
0.027351871132850647,0.002936342731118202,2182.0
0.02731107547879219,0.003277122974395752,2198.0
0.01734994351863861,0.002342420630156994,2187.0
0.02722354233264923,5.169212818145752e-05,2078.0
0.001868516206741333,0.001226034015417099,2080.0
0.011709436774253845,0.0030484478920698166,2022.0
0.007690601050853729,0.0028776871040463448,2096.0
0.02208619937300682,0.0006284713745117188,2289.0
0.0016407966613769531,0.0027212239801883698,2239.0
0.028885144740343094,0.002422981895506382,2256.0
0.00643804669380188,0.004334362223744392,2253.0
0.02876199409365654,0.003121906891465187,2360.0
0.018869932740926743,0.0016210954636335373,2474.0
0.0013073235750198364,0.004582095891237259,2277.0
0.02758151665329933,0.0039710961282253265,2441.0
0.012911200523376465,0.007748723030090332,2171.0
0.004994012415409088,0.006524837575852871,2296.0
0.02443607896566391,0.004355526529252529,2405.0
0.018510211259126663,0.00336433295160532,2442.0
0.002784736454486847,0.0072508156299591064,2258.0
0.0271344855427742,0.006016901694238186,2372.0
0.0074636563658714294,0.0013775583356618881,2156.0
0.0005712807178497314,9.169243276119232e-05,2224.0
0.00047878921031951904,0.00045832060277462006,2181.0
0.01005864143371582,0.0033550821244716644,2006.0
0.006083168089389801,0.0027420800179243088,1933.0
0.0011529624462127686,0.0018191970884799957,1950.0
0.023634452372789383,0.007572474889457226,2106.0
0.027389220893383026,0.0011810194700956345,2074.0
0.01811309903860092,0.007987052202224731,1545.0
0.029105782508850098,0.0024354420602321625,1935.0
0.012094870209693909,0.007169861346483231,1666.0
0.0005054622888565063,0.004029804840683937,1937.0
0.00515446811914444,0.005912724882364273,1775.0
0.0002725347876548767,0.004761485382914543,1782.0
0.007670730352401733,0.005078457295894623,2057.0
0.0047683194279670715,0.007090060040354729,1677.0
0.026429403573274612,0.004226621240377426,1800.0
0.020651020109653473,0.002576226368546486,1859.0
0.01660396158695221,0.012633873149752617,1444.0
0.013619013130664825,0.012067889794707298,1361.0
0.025014173239469528,0.005215901881456375,1629.0
0.00019188225269317627,0.008012427017092705,1563.0
0.005655117332935333,0.010526124387979507,1389.0
0.024641916155815125,0.006194574758410454,1574.0
0.005346260964870453,0.011317277327179909,1240.0
0.0070428550243377686,0.012460436671972275,1159.0
0.0013280436396598816,0.010585341602563858,1339.0
0.019630856812000275,0.0030358880758285522,1143.0
0.003780469298362732,0.012497937306761742,1623.0
0.02473606914281845,0.00636475533246994,1542.0
0.02359982579946518,0.006470303982496262,1873.0
0.0032796189188957214,0.013650292530655861,2509.0
0.020421482622623444,0.006233718246221542,2412.0
0.0056610107421875,4.0203332901000977e-05,2681.0
0.03357534855604172,0.013533130288124084,2462.0
0.024274222552776337,0.009813778102397919,2774.0
0.024935282766819,0.01075085997581482,2987.0
0.01839745044708252,0.008191131055355072,3201.0
0.03250738978385925,0.015756353735923767,3058.0
0.017039410769939423,0.00868096575140953,3300.0
0.016805782914161682,0.009142983704805374,3078.0
0.006796836853027344,0.004554305225610733,2907.0
0.022530630230903625,0.01331222802400589,2440.0
0.04434548318386078,0.025539472699165344,1747.0
0.01584450900554657,0.010977223515510559,1697.0
0.033147551119327545,0.021023772656917572,986.0
0.007475666701793671,0.007523786276578903,1268.0
0.018583133816719055,0.014296967536211014,926.0
0.020923800766468048,0.016252316534519196,862.0
0.025039929896593094,1.4508635490649786e+74,1649.0
0.0026368312537670135,4.261142508099961e+74,1990.0
0.0020100846886634827,5.795784630632043e+74,1508.0
0.015978030860424042,1.2224530575523983e+75,1735.0
0.02490352839231491,1.7461161598687855e+75,1669.0
0.024201013147830963,1.6532712798568788e+75,1680.0
0.019076500087976456,1.2896609694000048e+75,1757.0
0.02011696994304657,1.3094808437918272e+75,1789.0
0.018496129661798477,1.168480754081776e+75,1798.0
0.01508096233010292,9.246241542450784e+74,1809.0
0.008068673312664032,4.775825144341734e+74,1992.0
0.00011707469820976257,8.93348890674597e+74,2095.0
0.014587152749300003,7.79823359093679e+74,1916.0
0.01742035523056984,8.99384252175292e+74,1855.0
0.02117083966732025,1.0647630354187942e+75,1842.0
0.010438960045576096,4.42096754233003e+74,2014.0
0.012368801981210709,5.106399383191401e+74,1992.0
0.01795143634080887,7.67528760695165e+74,2034.0
0.001446366310119629,1.488002061836632e+75,1850.0
0.014543525874614716,5.151234852896739e+74,2204.0
0.022005047649145126,8.511969062207203e+74,2085.0
0.022137802094221115,8.152804339115956e+74,2239.0
0.03057337924838066,1.1809431511883464e+75,2195.0
0.007598470896482468,3.9062805924967905e+73,2522.0
0.01232646033167839,2.297824292785783e+74,2559.0
0.004064258188009262,7.20195398011222e+74,2789.0
0.013459835201501846,2.1307265433427832e+74,2710.0
0.010760009288787842,5.841206748776859e+73,2759.0
0.027694374322891235,7.658171276011609e+74,2518.0
0.020321443676948547,4.04124424230828e+74,2519.0
0.011035080999135971,8.778660089832257e+74,2677.0
0.005474057048559189,6.154895433829957e+74,2712.0
0.010795371606945992,1.6896100527705978e+74,2796.0
0.020752225071191788,2.645872890667231e+74,2432.0
0.01706603914499283,8.124994614929856e+73,2504.0
0.001972682774066925,3.7042060866456963e+74,2546.0
0.002170287072658539,6.244622449929701e+74,2133.0
0.013532329350709915,7.473633676268563e+74,2366.0
0.008841738104820251,5.446394505804438e+74,2406.0
0.023258108645677567,1.2092549774211747e+74,2120.0
0.01664837822318077,7.562766495143763e+74,2221.0
0.02344835177063942,4.736517542101028e+73,1999.0
0.030269376933574677,2.3396704436046674e+74,1934.0
0.02266836166381836,8.469017553574965e+74,1921.0
0.005006797611713409,3.3472305112238213e+74,1742.0
0.02960202842950821,7.936878891065146e+73,1781.0
0.02969587966799736,3.8348259498501744e+73,1792.0
0.030756521970033646,2.5939997964838997e+73,1722.0
0.02987739071249962,8.607465506893717e+74,1705.0
0.028021715581417084,7.648071001592228e+74,1758.0
0.0017197057604789734,8.5841850537477e+74,1699.0
0.0291597880423069,7.109040298316418e+74,1768.0
0.005795076489448547,8.73387314803092e+74,1770.0
0.00881396234035492,9.015829975856782e+74,1593.0
0.023525279015302658,4.440863982970387e+74,1983.0
0.027509402483701706,5.00867604691018e+74,1845.0
0.007969345897436142,5.967961634027134e+72,2059.0
0.00997764989733696,2.3743301510399563e+73,2097.0
0.013954412192106247,8.172735288488047e+73,2057.0
0.024824615567922592,2.798437072060903e+74,1966.0
0.006172113120555878,3.121395665176034e+74,2329.0
0.018039319664239883,6.804895434383492e+73,2193.0
0.023021087050437927,1.287780674879651e+74,2026.0
0.02702278271317482,1.6470144154343665e+74,1998.0
0.01817840337753296,4.2061738728403074e+74,2163.0
0.003791704773902893,2.2046712066635773e+74,1911.0
0.01430174708366394,2.8946883952540975e+74,2233.0
0.020284529775381088,3.5152395068641707e+74,2074.0
0.024291276931762695,3.7596017674605574e+74,2038.0
0.01837673783302307,2.5380099184444946e+74,2133.0
0.025363966822624207,3.145358744171664e+74,1974.0
0.005084283649921417,4.170155384092994e+74,1885.0
0.0011487677693367004,3.2301914515534536e+74,1820.0
0.02547091618180275,2.0002220687100404e+74,1950.0
0.013249194249510765,8.628954201984237e+73,2232.0
0.025532618165016174,1.235671950762449e+74,1919.0
0.015240803360939026,2.8338133748786047e+74,1571.0
0.029575172811746597,8.207616067486006e+73,1785.0
0.0033387690782546997,8.15398734157571e+73,1835.0
0.001368589699268341,2.2349957546747883e+73,1790.0
0.003387950360774994,2.1896631435529079e+74,1726.0
0.030664708465337753,1.5029108045037796e+74,1768.0
0.0024293139576911926,1.2477713052271994e+74,1723.0
0.011438339948654175,1.2357045722979162e+74,1663.0
0.003459557890892029,4.133763230484874e+73,1742.0
0.02146422117948532,5.773876977970317e+73,1500.0
0.02873361110687256,4.9303056387445067e+73,1793.0
0.013488292694091797,4.142316273565028e+73,1677.0
0.018746554851531982,1.1431010646885204e+73,1997.0
0.009498737752437592,2.1111350196992315e+73,1759.0
0.0034999996423721313,3.6785272808566603e+71,1950.0
0.0014989599585533142,0.00012137740850448608,1942.0
0.021746482700109482,0.0001227121683768928,2168.0
0.014488421380519867,0.00035898294299840927,1950.0
0.013479620218276978,0.0007836527656763792,2072.0
0.0004735514521598816,0.0008489206666126847,2298.0
0.009456418454647064,0.0005517653189599514,2145.0
0.0237046480178833,0.0002800500951707363,2404.0
0.006425641477108002,0.0012494996190071106,2198.0
0.0044085681438446045,0.0015459461137652397,2257.0
0.0033887699246406555,0.0018770706374198198,2242.0
0.009353138506412506,0.0006902036257088184,2174.0
0.017305761575698853,0.001665256917476654,2003.0
0.010291948914527893,0.0016012853011488914,2014.0
0.007268592715263367,0.0017808983102440834,2019.0
0.008230537176132202,0.0022736978717148304,1998.0
0.0012236163020133972,0.002035197801887989,2081.0
0.01412460207939148,0.0036879200488328934,1877.0
0.022454839199781418,0.0017320355400443077,2225.0
0.01005542278289795,0.000231829471886158,1874.0
0.0010681301355361938,0.003516223281621933,2080.0
0.009956926107406616,0.0010754019021987915,1970.0
0.014863170683383942,0.002134363166987896,1853.0
0.010839693248271942,0.002051061950623989,1963.0
0.02321566641330719,0.0037417402490973473,2271.0
0.028117548674345016,0.0008762581273913383,2276.0
0.0017590001225471497,0.001974291168153286,2187.0
0.008614934980869293,0.0034421291202306747,2144.0
0.005587920546531677,0.0033694524317979813,2116.0
0.006507538259029388,0.003933134488761425,2139.0
0.030794240534305573,0.003119676373898983,2218.0
0.02384297549724579,0.0022256439551711082,2354.0
0.0053093209862709045,0.004950599744915962,2219.0
0.03059401735663414,0.004200723022222519,2232.0
0.025620464235544205,0.0035783089697360992,2333.0
0.0265326090157032,0.004111034795641899,2324.0
0.029396791011095047,0.005070324055850506,2270.0
0.02834387496113777,0.00520942360162735,2399.0
0.015583138912916183,0.0027068722993135452,2454.0
0.031111538410186768,0.006576339714229107,2266.0
0.03102678433060646,0.006938861683011055,2237.0
0.00649193674325943,0.0011414121836423874,2215.0
0.01803717017173767,0.004444006830453873,1925.0
0.003385499119758606,0.0012006275355815887,2138.0
0.0287318117916584,6.520189344882965e-05,2228.0
0.015742763876914978,0.005328992381691933,1866.0
0.02950964868068695,0.0010262783616781235,2094.0
0.017419464886188507,0.006777681410312653,1847.0
0.0019070133566856384,0.002834068611264229,1886.0
0.01715341955423355,0.007705956697463989,1726.0
0.0036039575934410095,0.004155484959483147,1845.0
0.01113852858543396,0.00687762163579464,1729.0
0.004323981702327728,0.005221003666520119,1765.0
0.0003900676965713501,0.0043959841132164,1861.0
0.009783528745174408,0.007850347086787224,1526.0
0.025707166641950607,0.003239816054701805,1771.0
0.006663203239440918,0.007729921489953995,1626.0
0.024538274854421616,0.0035757478326559067,1794.0
0.017820052802562714,0.0015834309160709381,1793.0
0.0005948245525360107,0.006914814934134483,1596.0
0.013619013130664825,0.012067889794707298,1357.0
0.02876511588692665,0.006605295464396477,1559.0
0.022084888070821762,0.004484454169869423,1649.0
0.029436059296131134,0.007660247385501862,1429.0
0.01388561725616455,0.014195084571838379,1152.0
0.022655241191387177,0.005781190469861031,1430.0
0.02716599777340889,0.007966766133904457,1351.0
0.0013280436396598816,0.010585341602563858,1304.0
0.019630856812000275,0.0030358880758285522,1125.0
0.02674540877342224,0.008982568979263306,1739.0
0.008207127451896667,0.014862749725580215,1807.0
0.008028581738471985,0.015273546800017357,2102.0
0.019724518060684204,0.005344115197658539,2287.0
0.015865355730056763,0.004174169152975082,2432.0
0.029640503227710724,0.012327581644058228,2829.0
0.006384208798408508,0.0008586607873439789,2875.0
0.02156253159046173,0.00853053480386734,2863.0
0.0069073885679244995,0.00209088996052742,3167.0
0.001319102942943573,0.015489669516682625,3457.0
0.02175183594226837,0.01043488085269928,3198.0
0.02955123782157898,0.014962244778871536,3107.0
0.017696864902973175,0.00959683582186699,3172.0
0.01656947284936905,0.009603630751371384,2810.0
0.030502252280712128,0.01748993992805481,2263.0
0.021386951208114624,0.013336777687072754,2090.0
0.024647265672683716,0.01572185754776001,1625.0
0.022617541253566742,0.015268858522176743,1238.0
0.026718974113464355,0.018186576664447784,972.0
0.0229424387216568,0.016745731234550476,887.0
0.004412844777107239,0.006850820034742355,1142.0
0.017245937138795853,1.433225273557462e+75,1741.0
0.02088358625769615,1.629772774662217e+75,1661.0
0.01844020187854767,1.4244061358037036e+75,1707.0
0.02297477424144745,1.671594338009741e+75,1741.0
0.01700693741440773,1.2461426548490369e+75,1732.0
0.002196643501520157,2.792543627719464e+74,1967.0
0.006715606898069382,5.285245198994078e+74,1854.0
0.007718045264482498,5.5668342931474e+74,1926.0
0.0007296577095985413,1.0500511003623167e+74,1969.0
0.01864488422870636,1.134922306547947e+75,1728.0
0.0009198226034641266,6.179457023641598e+73,2106.0
0.01087149977684021,6.051716482741171e+74,1926.0
0.008295781910419464,4.2446020416207306e+74,2005.0
0.02372947707772255,1.2505039115014885e+75,1793.0
0.012132760137319565,5.692433135884588e+74,1959.0
0.021314337849617004,1.0294049575250394e+75,1854.0
0.004190277308225632,7.566017864711822e+73,2144.0
0.0012796372175216675,1.5310191370591642e+75,1740.0
0.015434667468070984,6.968974748197637e+74,2372.0
0.0008054673671722412,7.224366322975555e+74,2294.0
0.00915038213133812,2.090198194716989e+74,2308.0
0.015694446861743927,4.985267264418027e+74,2316.0
0.004736743867397308,8.35935311771593e+74,2563.0
0.020547956228256226,6.551672517715479e+74,2429.0
0.005836348980665207,8.307222286442461e+74,2768.0
0.02729731798171997,8.845308313187054e+74,2400.0
0.015322744846343994,2.973360754822443e+74,2648.0
0.021029122173786163,5.149520200288709e+74,2538.0
0.005894375964999199,3.54787506150369e+73,2916.0
0.030635729432106018,8.46799415399948e+74,2371.0
0.03076811507344246,8.050695158710923e+74,2402.0
0.019598696380853653,2.9552350434791844e+74,2564.0
0.003662634640932083,5.140424992681079e+74,2792.0
0.008460789918899536,6.790329514398164e+74,2581.0
0.02275027707219124,3.0366195736822454e+74,2338.0
0.02380473166704178,3.0368244692769157e+74,2282.0
0.017252713441848755,1.6033835161461166e+73,2305.0
0.020202036947011948,8.877845733620705e+73,2265.0
0.02984217181801796,3.9915257870625875e+74,2036.0
0.0015709325671195984,4.59552996180623e+74,1850.0
0.029101956635713577,2.834855646416757e+74,1983.0
0.018650248646736145,7.891296091638194e+74,2007.0
0.004786819219589233,4.255185438284387e+74,1784.0
0.030370984226465225,1.924942348830289e+74,1825.0
0.005006797611713409,3.3472305112238213e+74,1728.0
0.0002838447690010071,1.3932512214351444e+74,1754.0
0.005217641592025757,2.4363703803104033e+74,1774.0
0.020099151879549026,6.151421914301361e+74,1852.0
0.02502601221203804,7.206376489763499e+74,1860.0
0.028021715581417084,7.648071001592228e+74,1817.0
0.02713155373930931,6.981418381181327e+74,1840.0
0.024288032203912735,5.806194405239164e+74,1889.0
0.01948348432779312,4.1618403973419115e+74,1998.0
0.02931801602244377,6.294145715161523e+74,1886.0
0.015700239688158035,2.5141314936813993e+74,1995.0
0.0001766979694366455,5.945672228520601e+74,1819.0
0.02463756874203682,3.9297023157633443e+74,1983.0
0.027646642178297043,4.2161560626932866e+74,1912.0
0.02378145232796669,2.961517789450497e+74,1996.0
0.009084369987249374,3.9967387623501477e+74,2254.0
0.0022329427301883698,2.3167091962271885e+74,2345.0
0.018039319664239883,6.804895434383492e+73,2137.0
0.007233135402202606,2.804643251783681e+74,2309.0
0.010587893426418304,4.365642496575437e+74,1853.0
