X,Y,Z
0.11225633323192596,5.715625160405538e+74,118.0
0.06364879012107849,1.7046977016438287e+75,755.0
0.13223853707313538,2.6060127173596353e+75,1259.0
0.1315537393093109,2.3329813573171873e+75,981.0
0.18738755583763123,2.9041470229428006e+75,3857.0
0.191677987575531,2.6659103857485506e+75,3755.0
0.18801331520080566,2.3144846771077886e+75,3595.0
0.16942012310028076,1.7764469625876233e+75,3710.0
0.17167308926582336,1.5180718922717318e+75,3937.0
0.24257636070251465,2.046512297137538e+75,4000.0
0.22393503785133362,1.5099204984770254e+75,3484.0
0.18931815028190613,8.369903084045719e+74,2897.0
0.20946809649467468,7.296383889308581e+74,3115.0
0.1957188844680786,2.97429896096646e+74,2810.0
0.22982501983642578,2.721513873832322e+74,3267.0
0.21504315733909607,1.6468873801656709e+75,3282.0
0.22918513417243958,1.4280049651644083e+75,3294.0
0.03426402807235718,1.4391262666839679e+75,3833.0
0.15428763628005981,1.7270789866486038e+75,2514.0
0.21640253067016602,1.5793184207122979e+75,3679.0
0.21056437492370605,1.0723892494524244e+75,4593.0
0.22669029235839844,6.477940298774422e+74,4433.0
0.2168041467666626,1.3120478620736866e+74,11640.0
0.20189183950424194,5.224791292985526e+74,4594.0
0.22295022010803223,7.822223629879088e+73,4552.0
0.21198749542236328,3.600937628533976e+73,11519.0
0.22200006246566772,1.7887570764354443e+72,4432.0
0.22398823499679565,0.00022867275401949883,11892.0
0.21195268630981445,0.0003955624997615814,4580.0
0.22889035940170288,0.004831819795072079,4474.0
0.21780747175216675,0.0010044015944004059,4526.0
0.1897103190422058,0.0043683890253305435,4933.0
0.08464592695236206,0.004727233201265335,4813.0
0.0035843849182128906,0.004839003086090088,3556.0
0.02343529462814331,0.008696381002664566,3413.0
0.05324399471282959,0.013307617977261543,4568.0
0.02411520481109619,0.01484246738255024,5101.0
0.011953592300415039,0.0014997310936450958,5477.0
0.09255778789520264,0.010118439793586731,5767.0
0.20697933435440063,0.02224099263548851,4362.0
0.2106429934501648,0.026677671819925308,4266.0
0.21726739406585693,0.00016989558935165405,4009.0
0.20095980167388916,0.002855926752090454,3744.0
0.17668473720550537,0.004565395414829254,2874.0
0.14545267820358276,0.0052638426423072815,2122.0
0.13212668895721436,0.0075848400592803955,905.0
0.15951937437057495,0.014508157968521118,529.0
0.15111970901489258,0.017369359731674194,3819.0
0.10700339078903198,0.015544623136520386,350.0
0.09365510940551758,0.01734153926372528,473.0
0.008016109466552734,0.008834883570671082,3843.0
0.19624608755111694,0.0028105005621910095,27.0
0.23737981915473938,0.011729046702384949,3371.0
0.005706191062927246,0.017532914876937866,2537.0
0.03088843822479248,0.024686820805072784,2946.0
0.026428937911987305,0.02710241824388504,3034.0
0.024914026260375977,0.029989689588546753,4060.0
0.0037072300910949707,0.029277317225933075,214.0
0.21483778953552246,0.024991974234580994,1101.0
0.17898151278495789,0.02082981914281845,2541.0
0.19025585055351257,0.025680579245090485,2964.0
0.17308619618415833,0.02480451762676239,3676.0
0.1794183850288391,0.02871870994567871,2262.0
0.16520321369171143,0.028226517140865326,549.0
0.1285678744316101,0.02253159135580063,258.0
0.12222045660018921,0.023383386433124542,4010.0
0.1149030327796936,0.023933760821819305,4030.0
0.11633747816085815,0.026527278125286102,3963.0
0.08088162541389465,0.019952185451984406,541.0
0.08330309391021729,0.0226178839802742,69.0
0.08183488249778748,0.024302251636981964,690.0
0.06007319688796997,0.02053990215063095,414.0
0.09141135215759277,0.031064331531524658,153.0
0.07256650924682617,0.02792046219110489,289.0
0.08933842182159424,0.03475449979305267,710.0
0.046541035175323486,0.02435862272977829,726.0
0.04890483617782593,0.026942193508148193,642.0
0.05698657035827637,0.03130962699651718,156.0
0.03829774260520935,0.027435623109340668,536.0
0.01490059494972229,0.02183081954717636,167.0
0.11848136782646179,0.016574852168560028,394.0
0.0006115138530731201,0.020505189895629883,121.0
0.10333330929279327,0.014603227376937866,36.0
0.08775189518928528,0.010723188519477844,3886.0
0.08637869358062744,0.01162862777709961,78.0
0.07841017842292786,0.010165669023990631,3615.0
0.08738145232200623,0.014766581356525421,3985.0
0.07286234200000763,0.010790504515171051,3908.0
0.04716876149177551,0.0024147331714630127,3685.0
0.05145639181137085,0.0052063316106796265,3377.0
0.0510595440864563,0.006231658160686493,3407.0
0.035786330699920654,0.0013495013117790222,3483.0
0.02243085205554962,0.02829112485051155,3778.0
0.022082000970840454,0.029147744178771973,3875.0
0.015268445014953613,0.02730567753314972,3907.0
0.057173073291778564,0.019527528434991837,3767.0
0.013659432530403137,0.02853766456246376,3581.0
0.016973108053207397,0.030948370695114136,3760.0
0.01843610405921936,0.0013363957405090332,3749.0
0.0007490664720535278,0.025593440979719162,3310.0
0.043831177055835724,0.01756272092461586,3758.0
0.0018919557332992554,0.027897529304027557,3639.0
0.04777558892965317,0.020935222506523132,4044.0
0.060991071164608,0.028070807456970215,3712.0
0.0579473152756691,0.027473460882902145,3579.0
0.053122200071811676,0.025955848395824432,3412.0
0.04831895977258682,0.024384155869483948,3689.0
0.044429145753383636,0.02321244776248932,3834.0
0.042333684861660004,0.022915493696928024,3884.0
0.030502252280712128,0.01748993992805481,3718.0
0.020503930747509003,0.012867443263530731,295.0
0.021126165986061096,0.01382400467991829,193.0
0.02086254209280014,0.014309711754322052,305.0
0.024094894528388977,0.016732562333345413,126.0
0.021198712289333344,0.015766222029924393,49.0
0.020054802298545837,0.015757501125335693,34.0
0.00677991658449173,1.0136068601372358e+75,3365.0
0.030441410839557648,4.510092812420163e+74,3012.0
0.0020100846886634827,5.795784630632043e+74,3070.0
0.02384936809539795,1.7277370250268556e+75,2746.0
0.026658322662115097,4.7969725265074465e+73,3150.0
0.024201013147830963,1.6532712798568788e+75,3346.0
0.006367839872837067,6.221139257984746e+74,3063.0
0.024545155465602875,1.5783368629740403e+75,2954.0
0.01938445493578911,1.221654611771904e+75,3286.0
0.006105467677116394,4.297363735646211e+74,3449.0
0.01879194751381874,1.1012644307308094e+75,3276.0
0.030587948858737946,1.7353272205717385e+75,3453.0
0.004907578229904175,1.8895989371475213e+74,3289.0
0.01140683889389038,4.94610632428719e+74,3812.0
0.019363224506378174,9.656591341886418e+74,3165.0
0.007283695042133331,1.500582004310671e+74,3602.0
0.014741629362106323,4.896379241858564e+74,3465.0
0.0076576098799705505,5.579501154489494e+73,3318.0
0.02904229238629341,1.2995876217628496e+75,3635.0
0.031029194593429565,1.3518985454800554e+75,3618.0
0.02935056760907173,1.2181552106945078e+75,3662.0
0.02950163185596466,1.1772847942654008e+75,3708.0
0.006705276668071747,1.5379812736864892e+75,3315.0
0.03072255477309227,1.1392494858278113e+75,3687.0
0.021598048508167267,6.636193028914863e+74,3685.0
0.02265070751309395,6.707386699277741e+74,3982.0
0.024637293070554733,7.186538282607943e+74,3926.0
0.002848900854587555,1.096002711859675e+75,3707.0
0.023951876908540726,6.023207956737459e+74,3760.0
0.030635729432106018,8.46799415399948e+74,3889.0
0.001397453248500824,8.842916426718744e+74,3733.0
0.029956765472888947,7.242742222623885e+74,3813.0
0.023477915674448013,4.1460688285416284e+74,203.0
0.031152665615081787,6.793548532030221e+74,3813.0
0.0019213855266571045,7.11417131536611e+74,3968.0
0.030449271202087402,5.586918375016561e+74,4041.0
0.002170287072658539,6.244622449929701e+74,8.0
0.022107668220996857,1.59075979071869e+74,302.0
0.024114780128002167,1.9211463883395542e+74,258.0
0.02421438694000244,1.5478826915392536e+74,3977.0
0.008389599621295929,6.488840744410885e+74,3823.0
0.000834926962852478,3.4051491038477944e+74,4018.0
0.004786819219589233,4.255185438284387e+74,3777.0
0.0029722973704338074,3.176034849887415e+74,3870.0
0.028541740030050278,8.969746799819688e+73,4063.0
0.01477242261171341,5.889967586716934e+74,3812.0
0.0216633602976799,7.421959007292702e+74,3847.0
0.00047537684440612793,5.461502859916709e+73,42.0
0.016092360019683838,4.605129859615469e+74,285.0
0.01717672497034073,4.3490405614178054e+74,4046.0
0.013396017253398895,2.7434635840108495e+74,4045.0
0.027140334248542786,5.879862998706086e+74,3888.0
0.02823488414287567,5.529659761886999e+74,3820.0
0.05375151336193085,1.1351159868048038e+75,3828.0
0.0021568983793258667,1.3216874449244197e+75,4003.0
0.05893609672784805,1.095434827543078e+75,18.0
0.053197070956230164,8.769999476564902e+74,3852.0
0.01733355224132538,1.395831827530124e+75,3492.0
0.017492160201072693,1.2999048864152287e+75,3952.0
0.005840763449668884,9.54510225683695e+74,3104.0
0.020749270915985107,1.1680895113357424e+75,3356.0
0.020896390080451965,1.0698653670852324e+75,3315.0
0.04669398069381714,1.4600622828678104e+75,2972.0
0.030064865946769714,1.0362460979117222e+75,2956.0
0.11818774044513702,6.763142025781142e+74,3823.0
0.07750082015991211,1.9397923188137023e+75,1106.0
0.08866730332374573,1.8964825664101515e+75,1139.0
0.15434786677360535,2.6885248203721032e+75,985.0
0.17945310473442078,2.78582262085513e+75,361.0
0.1728198230266571,2.3975873107920538e+75,3825.0
0.18801331520080566,2.3144846771077886e+75,20.0
0.16643846035003662,1.7380943894976548e+75,3985.0
0.19255781173706055,1.7724775957199254e+75,3681.0
0.21968898177146912,1.7832891813721728e+75,4041.0
0.23787429928779602,1.6607564394495465e+75,3862.0
3.924756310880184e-05,6.071541749122327e+72,0.0
0.22940164804458618,9.182782141587779e+74,2982.0
0.21566155552864075,4.726393542928579e+74,2606.0
0.21885189414024353,1.8317579891699496e+74,2584.0
0.20805752277374268,1.5949711500676722e+75,2815.0
0.2431613802909851,1.5224249531003966e+75,3053.0
0.03426402807235718,1.4391262666839679e+75,3906.0
0.13131266832351685,1.6029025506975746e+75,2736.0
0.20940840244293213,1.5462364093559707e+75,3690.0
0.22955268621444702,1.1493950529575934e+75,4361.0
0.21269631385803223,6.004782450787262e+74,4767.0
0.2028079628944397,9.331592420007517e+73,5072.0
0.21588969230651855,5.509398822767702e+74,4800.0
0.2049514651298523,5.375295734453828e+73,4960.0
0.20098775625228882,2.8465066569684326e+73,11399.0
0.22600001096725464,1.8378216518746584e+72,4280.0
0.21398842334747314,0.00017156079411506653,4595.0
0.216952383518219,0.000453202985227108,4525.0
0.21689212322235107,0.004623682238161564,4598.0
0.19381386041641235,0.00044854357838630676,5127.0
0.17871493101119995,0.004049653187394142,5257.0
0.07465195655822754,0.004379332065582275,5025.0
0.0035843849182128906,0.004839003086090088,3554.0
0.019439637660980225,0.00851072184741497,3339.0
0.05324399471282959,0.013307617977261543,4558.0
0.02311694622039795,0.0147844348102808,5134.0
0.016943395137786865,0.0018189288675785065,5308.0
0.10053837299346924,0.010675590485334396,5367.0
0.22492802143096924,0.023599013686180115,4156.0
0.20864957571029663,0.026515178382396698,4375.0
0.20132815837860107,0.030027233064174652,4265.0
0.21987777948379517,0.004619792103767395,3438.0
0.19061648845672607,0.005946151912212372,2828.0
0.15539801120758057,0.006307967007160187,1977.0
0.11026066541671753,0.005160517990589142,1186.0
0.15951937437057495,0.014508157968521118,609.0
0.15111970901489258,0.017369359731674194,229.0
0.12584823369979858,0.017967574298381805,4026.0
0.08770865201950073,0.016541793942451477,450.0
0.005045294761657715,0.008417725563049316,3860.0
0.21999308466911316,0.006286002695560455,4068.0
0.23342540860176086,0.011126779019832611,3652.0
0.041263699531555176,0.023160234093666077,2574.0
0.022994160652160645,0.023390360176563263,3236.0
0.015584886074066162,0.025256671011447906,3251.0
0.028853297233581543,0.030683785676956177,3912.0
0.013545215129852295,0.031069837510585785,73.0
0.23744091391563416,0.029246337711811066,656.0
0.18290814757347107,0.02159256488084793,2488.0
0.17652848362922668,0.02293107658624649,3182.0
0.1819005012512207,0.026623360812664032,3513.0
0.1764838695526123,0.028095349669456482,2221.0
0.1554337441921234,0.02609177678823471,819.0
0.1266164779663086,0.022093281149864197,206.0
0.11247643828392029,0.021135129034519196,62.0
0.1149030327796936,0.023933760821819305,3820.0
0.10273343324661255,0.023221224546432495,71.0
0.10125848650932312,0.025029882788658142,205.0
0.09008541703224182,0.02434992790222168,292.0
0.07409527897834778,0.022277705371379852,194.0
0.07166469097137451,0.02364419400691986,51.0
0.08273142576217651,0.028685584664344788,450.0
0.10337883234024048,0.0365576446056366,266.0
0.06915116310119629,0.028968825936317444,684.0
0.06285560131072998,0.029137246310710907,539.0
0.06040117144584656,0.030382275581359863,515.0
0.054117560386657715,0.03043290227651596,482.0
0.044980138540267944,0.029520221054553986,525.0
0.032052427530288696,0.02729107439517975,306.0
0.014405548572540283,0.023370355367660522,265.0
0.009155094623565674,0.023334912955760956,177.0
0.09575377404689789,0.012043789029121399,164.0
0.10004422068595886,0.014953859150409698,115.0
0.08543503284454346,0.011297695338726044,3652.0
0.08123533427715302,0.011174917221069336,3646.0
0.06670714914798737,0.007245056331157684,3781.0
0.05504535138607025,0.004190884530544281,3639.0
0.04716876149177551,0.0024147331714630127,3879.0
0.04398733377456665,0.002340458333492279,3894.0
0.04826493561267853,0.005140677094459534,3919.0
0.05530373752117157,0.009100019931793213,3822.0
0.04097561538219452,0.004530571401119232,3712.0
0.03780774772167206,0.0043553635478019714,3407.0
0.019882529973983765,0.02923184633255005,3810.0
0.005719810724258423,0.02421468123793602,3429.0
0.013659432530403137,0.02853766456246376,3712.0
0.007813557982444763,0.026935577392578125,3543.0
0.004732012748718262,0.026487380266189575,3593.0
0.06142660975456238,0.0247696191072464,3534.0
0.05291931331157684,0.02173474431037903,3637.0
0.05804736167192459,0.02494015172123909,3781.0
0.05952625721693039,0.02649594098329544,3367.0
0.0582868829369545,0.026771806180477142,3529.0
0.04536326974630356,0.021338175982236862,3810.0
0.046848125755786896,0.022851653397083282,3717.0
0.04027564823627472,0.02034619078040123,3730.0
0.04532022774219513,0.023666303604841232,3814.0
0.04766421020030975,0.02566966786980629,3602.0
0.026959307491779327,0.015633177012205124,3811.0
0.02933412790298462,0.01756078377366066,3865.0
0.028168365359306335,0.01761971041560173,3872.0
0.022617541253566742,0.015268858522176743,84.0
0.024094894528388977,0.016732562333345413,8.0
0.014223828911781311,0.01184820756316185,291.0
0.0252687931060791,0.018726397305727005,52.0
0.005047909915447235,8.97803752261877e+74,2189.0
0.006142556667327881,9.09545779593501e+74,3087.0
0.017568439245224,1.3676750749105252e+75,2715.0
0.02472396194934845,1.78387971204397e+75,2783.0
0.0050597116351127625,6.59049052732471e+74,3063.0
0.004393287003040314,5.585087255438928e+74,2978.0
0.006367839872837067,6.221139257984746e+74,2979.0
0.007465355098247528,6.294254633346058e+74,3072.0
0.009454220533370972,6.885738608857476e+74,3172.0
0.027554679661989212,1.6606675794653316e+75,2920.0
5.242973566055298e-05,1.964193874381927e+73,3247.0
0.0020265579223632812,8.018793993018617e+73,3131.0
0.0013125091791152954,1.7951468129551057e+75,3613.0
0.026433385908603668,1.4009835498188565e+75,3372.0
0.01341983675956726,5.438632197960032e+74,3427.0
0.005471125245094299,5.217332014941659e+73,3082.0
0.019638605415821075,8.972884937611744e+74,3748.0
0.005835331976413727,1.7696101357924073e+75,3598.0
0.02995581179857254,1.3466911778614019e+75,3791.0
0.0034426823258399963,1.5378484150693134e+75,3839.0
0.024759620428085327,9.888065130379106e+74,3606.0
0.02950163185596466,1.1772847942654008e+75,3460.0
0.00024612247943878174,1.225572862580721e+75,3564.0
0.02424781024456024,8.311971550647346e+74,3751.0
0.027160998433828354,9.239214701951458e+74,3761.0
0.021721385419368744,6.279801945136732e+74,3948.0
0.018117111176252365,4.2373163856334e+74,3999.0
4.823505878448486e-05,9.714917568903998e+74,3974.0
0.026758749037981033,7.249430446193072e+74,3843.0
0.02219676971435547,4.846108646905129e+74,38.0
0.029828451573848724,7.654588838298478e+74,3758.0
0.029956765472888947,7.242742222623885e+74,3811.0
0.021590743213891983,3.3792201055411956e+74,4019.0
0.030207179486751556,6.416488874739186e+74,28.0
0.025592397898435593,4.1486785513790086e+74,191.0
0.0219062902033329,2.3082265186078363e+74,4007.0
0.02961615100502968,4.813025557150935e+74,3942.0
0.02306048572063446,1.942246320999133e+74,4038.0
0.023160215467214584,1.5760849525488265e+74,150.0
0.02421438694000244,1.5478826915392536e+74,4055.0
0.005515694618225098,5.492299746193529e+74,3659.0
0.028246451169252396,2.1022611532537389e+74,280.0
0.004786819219589233,4.255185438284387e+74,4053.0
0.008749261498451233,5.052669287881637e+74,4013.0
0.011757485568523407,5.491206250756709e+74,3876.0
0.009942896664142609,4.391061412691093e+74,62.0
0.01392420381307602,5.075798765326319e+74,3876.0
0.006288483738899231,2.26664134007269e+74,261.0
0.00930042564868927,2.6436039415557235e+74,119.0
0.023006737232208252,5.991108365837683e+74,3970.0
0.03188350796699524,7.818895694062495e+74,4031.0
0.026165977120399475,5.619294035770208e+74,3762.0
0.035064391791820526,7.307672558177051e+74,3872.0
0.038121066987514496,7.392348358669238e+74,3630.0
0.05194120854139328,1.0085933884550125e+75,3914.0
0.05697745829820633,1.0485851263023437e+75,3975.0
0.061040930449962616,1.0591184853049862e+75,3643.0
0.008499056100845337,1.1968956751506595e+75,3560.0
0.007665112614631653,1.0854801368356994e+75,3342.0
0.006824523210525513,9.75290521215588e+74,3131.0
0.012870937585830688,1.0071522175459733e+75,3418.0
0.008081167936325073,8.169700676891192e+74,3187.0
0.030906036496162415,1.1594355841351603e+75,2930.0
0.059695079922676086,1.5799719298195096e+75,3131.0
0.11719916760921478,6.588553724756141e+74,281.0
0.0537545382976532,1.5367734680758008e+75,1352.0
0.07282322645187378,1.6384715632140531e+75,1581.0
0.13254478573799133,2.3484395436974115e+75,790.0
0.17548584938049316,2.726659988452148e+75,88.0
0.20061078667640686,2.793011221034459e+75,3783.0
0.1741081178188324,2.126136019303874e+75,3490.0
0.15848734974861145,1.6358199985394455e+75,4023.0
0.1776401400566101,1.5907589280003966e+75,4034.0
0.22665470838546753,1.863400339374251e+75,3889.0
0.24982225894927979,1.7900446969682408e+75,3417.0
3.924756310880184e-05,6.071541749122327e+72,0.0
0.21345481276512146,7.673663539764421e+74,2633.0
0.19871026277542114,3.237113148260778e+74,3180.0
0.22184455394744873,2.074419077131639e+74,2929.0
0.22502261400222778,1.721053330728709e+75,2602.0
0.2391681671142578,1.495447752067379e+75,3208.0
0.04524886608123779,1.5059151131205802e+75,3763.0
0.15228986740112305,1.71628120448905e+75,2547.0
0.18942511081695557,1.4517156990592339e+75,3994.0
0.212563157081604,1.08049535053673e+75,4635.0
0.22169244289398193,6.308955353064722e+74,4414.0
0.2248019576072693,1.5285556449725066e+74,4415.0
0.21488982439041138,5.489069944582804e+74,11810.0
0.22395014762878418,7.958166464953528e+73,11901.0
0.2199873924255371,4.149615679125159e+73,4736.0
0.21400004625320435,1.690627925557016e+72,4627.0
0.207988440990448,0.0001372932456433773,4691.0
0.20595312118530273,0.00032639317214488983,4726.0
0.2128928303718567,0.004554304294288158,4647.0
0.19781279563903809,0.0005411878228187561,5187.0
0.1677195429801941,0.003730917349457741,5497.0
0.08164769411087036,0.004622861742973328,5063.0
0.024567067623138428,0.0056916698813438416,3367.0
0.005454719066619873,0.007860913872718811,3620.0
0.04825085401535034,0.013046493753790855,4628.0
0.026111841201782227,0.014958532527089119,5098.0
0.025925040245056152,0.0023934878408908844,5171.0
0.09255778789520264,0.010118439793586731,5523.0
0.20498502254486084,0.022090096026659012,4523.0
0.20665621757507324,0.026352692395448685,4401.0
0.21029400825500488,0.030810609459877014,4054.0
0.1939900517463684,0.002206079661846161,3821.0
0.21250921487808228,0.008115917444229126,2531.0
0.1305345892906189,0.0036976486444473267,2284.0
0.12019973993301392,0.006262481212615967,1154.0
0.14660710096359253,0.01300046592950821,830.0
0.1580677032470703,0.01822163164615631,213.0
0.11493802070617676,0.016564808785915375,448.0
0.08869969844818115,0.016675084829330444,373.0
0.0070258378982543945,0.008695833384990692,51.0
0.225929856300354,0.007154881954193115,4051.0
0.2146420180797577,0.00826602429151535,4010.0
0.014595568180084229,0.018939748406410217,3173.0
0.009179234504699707,0.021121561527252197,3480.0
0.04515957832336426,0.03029051423072815,3048.0
0.033777475357055664,0.03155142813920975,4052.0
0.01157766580581665,0.0307113379240036,4078.0
0.2364581823348999,0.029061369597911835,796.0
0.17014670372009277,0.01911364495754242,2592.0
0.18927529454231262,0.025484181940555573,2971.0
0.1770036816596985,0.02561289817094803,3601.0
0.16963666677474976,0.02664083242416382,2447.0
0.15347984433174133,0.025664828717708588,877.0
0.13149496912956238,0.023189060389995575,4027.0
0.1095532476902008,0.020460650324821472,3963.0
0.1168491542339325,0.02439473569393158,3976.0
0.10662031173706055,0.024165816605091095,289.0
0.10416945815086365,0.025755271315574646,4039.0
0.09008541703224182,0.02434992790222168,4071.0
0.06442078948020935,0.01974702626466751,208.0
0.07456260919570923,0.024420268833637238,246.0
0.08273142576217651,0.028685584664344788,549.0
0.07449227571487427,0.028460286557674408,542.0
0.06530594825744629,0.02786678820848465,687.0
0.07053303718566895,0.03138601779937744,707.0
0.051778942346572876,0.02780221402645111,358.0
0.061768293380737305,0.03277083486318588,377.0
0.034479230642318726,0.026244424283504486,408.0
0.03300529718399048,0.0275944322347641,282.0
0.021063238382339478,0.0255325585603714,367.0
0.014850825071334839,0.025221392512321472,225.0
0.11565002799034119,0.01876232773065567,38.0
0.09815309941768646,0.014302991330623627,4040.0
0.07694214582443237,0.008319318294525146,3615.0
0.06899306178092957,0.006801523268222809,3920.0
0.08268274366855621,0.013057149946689606,3855.0
0.05410762131214142,0.003843538463115692,432.0
0.07243265211582184,0.011940255761146545,4001.0
0.035584643483161926,0.03036634251475334,3877.0
0.049196481704711914,0.005504339933395386,3402.0
0.04600974917411804,0.005409300327301025,3869.0
0.032630473375320435,0.0011603161692619324,3453.0
0.04058288037776947,0.005494944751262665,3452.0
0.01157715916633606,0.02576473355293274,3590.0
0.014925435185432434,0.028120648115873337,3564.0
0.008149787783622742,0.02616199478507042,3337.0
0.016973108053207397,0.030948370695114136,3598.0
0.05809595435857773,0.02242136374115944,3421.0
0.012594982981681824,0.030948255211114883,3440.0
0.05201049894094467,0.02131754159927368,3633.0
0.056234635412693024,0.024095192551612854,3707.0
0.0033535510301589966,0.029490172863006592,3560.0
0.05377991497516632,0.024606816470623016,3728.0
0.05165529251098633,0.024405818432569504,3750.0
0.035196274518966675,0.01708672195672989,3499.0
0.037594541907310486,0.019000206142663956,3828.0
0.025716550648212433,0.013681523501873016,3755.0
0.03522631525993347,0.019243255257606506,3673.0
0.03935960680246353,0.02213183417916298,3738.0
0.030217155814170837,0.01803012192249298,4041.0
0.028168365359306335,0.01761971041560173,107.0
0.031392551958560944,0.020064622163772583,3897.0
0.024969585239887238,0.017217230051755905,19.0
0.023814305663108826,0.01723548397421837,3948.0
0.014840811491012573,0.012788604944944382,129.0
0.00677991658449173,1.0136068601372358e+75,2949.0
0.0009291991591453552,5.656434058298875e+74,2931.0
0.006368875503540039,8.63232904810803e+74,3029.0
0.003969080746173859,6.483405619162787e+74,2935.0
0.006814509630203247,7.701537967822521e+74,3218.0
0.0035131126642227173,5.035479625886661e+74,3337.0
0.02437402680516243,1.6158620892206872e+75,2980.0
0.023659519851207733,1.5245657885453417e+75,2850.0
0.0023476406931877136,2.631838620830179e+74,3026.0
0.002541549503803253,2.1943843694132593e+74,3327.0
0.0286216139793396,1.6729729618425125e+75,3279.0
0.01804111897945404,1.0161374285712013e+75,3220.0
0.029866207391023636,1.642848348795785e+75,3615.0
0.005999021232128143,1.93651355793983e+74,3314.0
0.0034779533743858337,1.8080429416836572e+75,3333.0
0.02675202488899231,1.323058951331271e+75,3576.0
0.001110754907131195,1.573923411864841e+75,3528.0
0.0012796372175216675,1.5310191370591642e+75,3349.0
0.030869334936141968,1.3937949496395275e+75,3518.0
0.006190292537212372,1.6773109251010437e+75,3646.0
0.030268758535385132,1.2640250796335712e+75,3810.0
0.009297385811805725,1.720291550475682e+75,3796.0
0.00024612247943878174,1.225572862580721e+75,3947.0
0.02424781024456024,8.311971550647346e+74,3561.0
0.002401106059551239,1.2276073679960108e+75,3676.0
0.019862741231918335,5.424632436854714e+74,3979.0
0.004564754664897919,1.224234786507737e+75,3778.0
0.025696903467178345,7.224702783109961e+74,99.0
0.014595624059438705,1.9357975017563506e+74,308.0
0.029698070138692856,8.065564108496789e+74,3948.0
0.02137143164873123,4.089603916241948e+74,4058.0
0.02901512384414673,6.852968254484621e+74,3834.0
0.030083008110523224,6.83003720224741e+74,4068.0
0.02358870953321457,3.777056176131804e+74,3770.0
0.025592397898435593,4.1486785513790086e+74,4027.0
0.030449271202087402,5.586918375016561e+74,3851.0
0.02961615100502968,4.813025557150935e+74,3807.0
0.0013386383652687073,5.45711593739503e+74,3732.0
0.027933042496442795,3.3013986018896653e+74,50.0
0.005396060645580292,5.950040818278546e+74,3923.0
0.005515694618225098,5.492299746193529e+74,3700.0
0.029206067323684692,2.4279826017033194e+74,4005.0
0.027385659515857697,1.3819129462648075e+74,4064.0
0.027482502162456512,9.866240514353114e+73,260.0
0.012721866369247437,5.797486342465674e+74,3890.0
0.020908884704113007,7.141916335680209e+74,210.0
0.01972857117652893,6.835418407602173e+74,3750.0
0.005319632589817047,1.9798910337294088e+74,4048.0
0.015122085809707642,4.3249124875485723e+74,3673.0
0.0113467276096344,2.7069770705893945e+74,4081.0
0.023126281797885895,5.414743528417203e+74,3892.0
0.029089033603668213,6.401000924577841e+74,25.0
0.025307953357696533,4.76765520210372e+74,3980.0
0.04398248344659805,8.876903213885221e+74,3746.0
0.04020364582538605,7.19583622901451e+74,147.0
0.04032895714044571,6.50361910877595e+74,144.0
0.060060448944568634,1.0363535063392442e+75,3906.0
0.05038522928953171,7.327111758121933e+74,3550.0
0.0017688870429992676,9.568255459034698e+74,3831.0
0.008792057633399963,1.0168508965998007e+75,3516.0
0.01484052836894989,1.0473865949133089e+75,3427.0
0.00019487738609313965,6.613421579561921e+74,3740.0
0.024985551834106445,1.0467007338700966e+75,2832.0
0.038953930139541626,1.1993639121879305e+75,2952.0
0.11225633323192596,5.715625160405538e+74,3866.0
0.08739510178565979,2.1077161210225835e+75,1005.0
0.06886222958564758,1.5739691359343885e+75,1860.0
0.1632673144340515,2.8276502232307074e+75,792.0
0.17647764086723328,2.74145043087332e+75,3780.0
0.19961825013160706,2.7788885225723387e+75,3821.0
0.18602684140205383,2.287577787615679e+75,3649.0
0.170414000749588,1.7892311536176128e+75,82.0
0.18957430124282837,1.7361338621760196e+75,3907.0
0.2346155047416687,1.9549563182558945e+75,40.0
0.2368786334991455,1.6499828134022064e+75,3834.0
3.924756310880184e-05,6.071541749122327e+72,0.0
0.210464745759964,7.390704880320408e+74,2938.0
0.23261284828186035,6.215673937596381e+74,2895.0
0.19690561294555664,5.225053343667131e+72,2772.0
0.20306777954101562,1.5578880669463665e+75,3010.0
0.19923606514930725,1.2256766044554961e+75,2978.0
0.02927088737487793,1.4087676413001696e+75,3970.0
0.15328872203826904,1.7216800955688268e+75,2502.0
0.16844254732131958,1.352468802271959e+75,4273.0
0.2085655927658081,1.0642835797272656e+75,4813.0
0.22868943214416504,6.545534277058303e+74,4386.0
0.22580170631408691,1.555619117834859e+74,4511.0
0.23088735342025757,5.814335230734776e+74,11893.0
0.227949857711792,8.501927021272623e+73,11994.0
0.20598763227462769,3.189431786585255e+73,5004.0
0.21800005435943604,1.7396925009962302e+72,11684.0
0.218988299369812,0.00020011654123663902,4574.0
0.22195208072662354,0.0005108444020152092,11808.0
0.2148924469947815,0.004588993266224861,4648.0
0.20481091737747192,0.0007033124566078186,4841.0
0.17671579122543335,0.003991700708866119,5152.0
0.09064227342605591,0.004935974255204201,4672.0
0.021569550037384033,0.005569860339164734,3335.0
0.011448204517364502,0.00813940167427063,3529.0
0.049249470233917236,0.013098716735839844,4553.0
0.02012193202972412,0.014610333368182182,5184.0
0.02193319797515869,0.002138126641511917,5225.0
0.10053837299346924,0.010675590485334396,5480.0
0.21395933628082275,0.022769108414649963,4305.0
0.1946958303451538,0.025377750396728516,4626.0
0.22224843502044678,0.0006051063537597656,3964.0
0.1939900517463684,0.002206079661846161,3712.0
0.18166041374206543,0.0050585269927978516,2867.0
0.1394854187965393,0.004637360572814941,2194.0
0.10230934619903564,0.004278950393199921,1414.0
0.1615058183670044,0.01474010944366455,643.0
0.15608251094818115,0.01797812432050705,315.0
0.10898703336715698,0.015799671411514282,426.0
0.09960156679153442,0.018141284584999084,156.0
0.005045294761657715,0.008417725563049316,22.0
0.2180141806602478,0.005996376276016235,169.0
0.2314482033252716,0.01082564890384674,3819.0
0.038300514221191406,0.022691287100315094,3117.0
0.04371654987335205,0.026793554425239563,3167.0
0.04614537954330444,0.03045830875635147,3174.0
0.027868449687957764,0.03051026165485382,3920.0
0.01157766580581665,0.0307113379240036,4037.0
0.22957897186279297,0.02776656299829483,954.0
0.19174298644065857,0.023308739066123962,2382.0
0.19319742918014526,0.026269756257534027,2934.0
0.17308619618415833,0.02480451762676239,3623.0
0.16572394967079163,0.02580968290567398,2435.0
0.15347984433174133,0.025664828717708588,744.0
0.12076237797737122,0.020778365433216095,420.0
0.1095532476902008,0.020460650324821472,4059.0
0.11392995715141296,0.02370326966047287,3538.0
0.10953545570373535,0.024874255061149597,72.0
0.12163537740707397,0.030107587575912476,84.0
0.07942748069763184,0.021628133952617645,492.0
0.08280232548713684,0.024555310606956482,4041.0
0.09291583299636841,0.029335401952266693,350.0
0.07308703660964966,0.02604251354932785,826.0
0.08989843726158142,0.03277887403964996,484.0
0.07299637794494629,0.030070863664150238,729.0
0.06093621253967285,0.028575055301189423,347.0
0.054653018712997437,0.02866223454475403,319.0
0.037859708070755005,0.025464795529842377,540.0
0.017295926809310913,0.020884014666080475,21.0
0.016806334257125854,0.022437505424022675,288.0
0.035329729318618774,0.030165843665599823,313.0
0.11896651983261108,0.018304288387298584,4073.0
0.10712306201457977,0.0158829465508461,4037.0
0.09247970581054688,0.012350372970104218,4016.0
0.08826600015163422,0.01229049265384674,3776.0
0.09253588318824768,0.015211895108222961,84.0
0.07516482472419739,0.010322049260139465,211.0
0.07098686695098877,0.010095804929733276,3825.0
0.05559004843235016,0.005589902400970459,3963.0
0.043053701519966125,0.0019822195172309875,3619.0
0.053854137659072876,0.007322631776332855,3714.0
0.02463352680206299,0.028170637786388397,3437.0
0.02521255612373352,0.02941453829407692,3902.0
0.022082000970840454,0.029147744178771973,3532.0
0.019882529973983765,0.02923184633255005,3213.0
0.009402066469192505,0.025777071714401245,3649.0
0.010904595255851746,0.02734982594847679,3525.0
0.01605716347694397,0.030547093600034714,3550.0
0.0029048025608062744,0.02567417547106743,3488.0
0.018973559141159058,0.0025816187262535095,3714.0
0.06018982082605362,0.025072365999221802,3533.0
0.002798333764076233,0.028320010751485825,3505.0
0.04596778750419617,0.020079724490642548,3801.0
0.04656875133514404,0.021142829209566116,3577.0
0.0336780846118927,0.015641123056411743,3867.0
0.03967776149511337,0.019304003566503525,3415.0
0.0465315580368042,0.02348683401942253,3804.0
0.042646996676921844,0.02230474352836609,3708.0
0.032561056315898895,0.017866168171167374,3924.0
0.025187842547893524,0.014704801142215729,3987.0
0.02933412790298462,0.01756078377366066,3999.0
0.026407815515995026,0.01667078211903572,3706.0
0.02437254786491394,0.01622801274061203,146.0
0.024969585239887238,0.017217230051755905,3689.0
0.02207057923078537,0.016255978494882584,3927.0
0.019185803830623627,0.015262685716152191,275.0
0.0007179230451583862,6.082970609713465e+74,2689.0
0.001798085868358612,6.229602524442498e+74,2910.0
0.002881839871406555,6.363095239563827e+74,3164.0
0.01796257495880127,1.546623554190111e+75,2832.0
0.025780927389860153,1.8016687475732494e+75,2996.0
0.027721714228391647,6.386272166514644e+73,2734.0
0.012548290193080902,1.002681827029413e+75,3058.0
0.0065797120332717896,5.756543889059072e+74,3181.0
0.030932661145925522,1.036620733330609e+74,3472.0
0.004323504865169525,3.2458697389382684e+74,3118.0
5.242973566055298e-05,1.964193874381927e+73,3185.0
0.016365788877010345,9.021190691652078e+74,3306.0
0.0280686654150486,1.5413156798902824e+75,3314.0
0.01471645012497902,7.48904613857924e+74,3365.0
0.012516029179096222,4.94311269180927e+74,3586.0
0.0018460005521774292,1.6656553852783278e+75,3380.0
0.006563104689121246,5.465838019340787e+73,3692.0
0.025240540504455566,1.1492740567169513e+75,3626.0
0.0023598894476890564,1.5351058336147575e+75,3430.0
0.002526804804801941,1.4913608398322123e+75,3794.0
0.022005047649145126,8.511969062207203e+74,3600.0
0.0010130777955055237,1.3130367529174377e+75,3650.0
0.0030143260955810547,1.3594622124374178e+75,3691.0
0.027947664260864258,1.0072272740374946e+75,3999.0
0.02067088708281517,6.202355723942809e+74,3895.0
0.018004093319177628,4.569465085368429e+74,3845.0
0.02650020271539688,8.029172494087603e+74,3766.0
0.0009817928075790405,1.0129956242263982e+75,3784.0
0.018338125199079514,3.570762977826234e+74,3772.0
0.02594742178916931,6.455837456098826e+74,3917.0
0.0042164623737335205,1.003124401513901e+75,3766.0
0.02901512384414673,6.852968254484621e+74,3788.0
0.01970357447862625,2.612373539336496e+74,3803.0
0.028316184878349304,5.662365246565648e+74,3855.0
0.027487143874168396,4.890051203176851e+74,3813.0
0.029500048607587814,5.222618321284154e+74,62.0
0.023909948766231537,2.665631296380652e+74,2.0
0.025918930768966675,2.9967080686361956e+74,83.0
0.025069348514080048,2.2662099809260153e+74,4067.0
0.028039518743753433,2.902393548011569e+74,3972.0
0.03101789578795433,3.4992177497588164e+74,4046.0
0.028246451169252396,2.1022611532537389e+74,82.0
0.004786819219589233,4.255185438284387e+74,3784.0
0.002009466290473938,2.8632606462252667e+74,3864.0
0.009828716516494751,4.878639596951579e+74,3907.0
0.002215653657913208,1.9928123969680408e+74,3969.0
0.007152438163757324,3.0229109800009326e+74,3951.0
0.010163895785808563,3.4136360950586134e+74,4009.0
0.013181529939174652,3.764475586619045e+74,4009.0
0.015233397483825684,3.801686783406913e+74,3798.0
0.030910484492778778,7.551765758505699e+74,3722.0
0.032012082636356354,7.182707813385474e+74,99.0
0.034088753163814545,7.053673195045024e+74,3812.0
0.02542131394147873,4.175811041704829e+74,3837.0
0.047050558030605316,8.881727965940774e+74,4082.0
0.04130827635526657,6.737868693377489e+74,3772.0
0.0512361004948616,8.314699897250062e+74,3621.0
0.04547717422246933,6.221911390857293e+74,3468.0
0.015526756644248962,1.2570198070915788e+75,3499.0
0.03141865134239197,1.4947946743193139e+75,3990.0
0.02271886169910431,1.208323888703078e+75,3270.0
0.058751724660396576,5.835282030897286e+74,2768.0
0.028932541608810425,1.1218573007134724e+75,3316.0
0.04092928767204285,1.2356123153604212e+75,3067.0
0.1221420019865036,7.461482289106745e+74,216.0
0.04287081956863403,1.3520568542868849e+75,1032.0
0.10253086686134338,2.1222421402868442e+75,1181.0
0.12758955359458923,2.2711477490779973e+75,980.0
0.1814367175102234,2.815403937056621e+75,247.0
0.19366306066513062,2.6941549199544976e+75,3839.0
0.1751013696193695,2.1395896797295023e+75,3556.0
0.16544455289840698,1.7253097671085187e+75,3864.0
0.17266756296157837,1.5301861825469359e+75,72.0
0.2077476978302002,1.6459552130497075e+75,3634.0
0.23986563086509705,1.68230455426252e+75,3905.0
0.21820753812789917,1.129981950241085e+75,2438.0
0.21843817830085754,8.145264181232087e+74,2511.0
0.23061856627464294,6.040464479400169e+74,2640.0
0.2078787386417389,9.420021045075771e+73,2832.0
0.20905545353889465,1.6023875078764454e+75,3064.0
0.2431613802909851,1.5224249531003966e+75,3390.0
0.05223923921585083,1.5484173612015565e+75,124.0
0.1432996392250061,1.6676905377323376e+75,2685.0
0.16544502973556519,1.3382904584799177e+75,4245.0
0.21955883502960205,1.1088658416135059e+75,4585.0
0.24068433046340942,6.951098146761583e+74,12074.0
0.2198033332824707,1.3932382806607441e+74,11778.0
0.20189183950424194,5.224791292985526e+74,11399.0
0.22195029258728027,7.686280794804647e+73,4519.0
0.2139875292778015,3.738109837176438e+73,11576.0
0.21900004148483276,1.7519584342314504e+72,4577.0
0.218988299369812,0.00020011654123663902,11763.0
0.21395260095596313,0.0004186192527413368,4615.0
0.22289127111434937,0.004727751016616821,4639.0
0.2158079743385315,0.0009580794721841812,4720.0
0.193708598613739,0.004484290257096291,4928.0
0.09364044666290283,0.005040343850851059,4549.0
0.014575362205505371,0.005285639315843582,3349.0
0.009450376033782959,0.008046573027968407,3568.0
0.04425626993179321,0.012837592512369156,4743.0
0.02910679578781128,0.015132633969187737,4957.0
0.012951552867889404,0.0015635713934898376,5467.0
0.09156018495559692,0.010048799216747284,5640.0
0.19401639699935913,0.021260198205709457,4679.0
0.19668930768966675,0.025540243834257126,4549.0
0.2122863531112671,0.03098468855023384,4065.0
0.22883892059326172,0.00545530766248703,3313.0
0.191611647605896,0.0060447826981544495,2753.0
0.13351821899414062,0.004010885953903198,2200.0
0.10628503561019897,0.004719734191894531,1242.0
0.15951937437057495,0.014508157968521118,473.0
0.14814209938049316,0.017004109919071198,3969.0
0.10799521207809448,0.015672147274017334,37.0
0.09960156679153442,0.018141284584999084,101.0
0.24712297320365906,0.0073052942752838135,434.0
0.22395095229148865,0.006865255534648895,3814.0
0.2472657859325409,0.013234704732894897,3453.0
2.2289808839559555e-05,6.848794873803854e-05,0.0
0.006218850612640381,0.02063538134098053,2876.0
0.01755654811859131,0.025592267513275146,3208.0
0.019005000591278076,0.028948523104190826,44.0
0.002723395824432373,0.029098063707351685,228.0
0.23154443502426147,0.028136499226093292,808.0
0.19076135754585266,0.02311805635690689,2381.0
0.18045058846473694,0.023716643452644348,3214.0
0.19463226199150085,0.029250584542751312,3363.0
0.1823529303073883,0.02934207022190094,2290.0
0.15445679426193237,0.02587830275297165,827.0
0.13247063755989075,0.023408211767673492,231.0
0.11929723620414734,0.02270890772342682,3823.0
0.10809150338172913,0.022320330142974854,56.0
0.10953545570373535,0.024874255061149597,183.0
0.09931784868240356,0.024546295404434204,110.0
0.09783667325973511,0.026329420506954193,4021.0
0.0837697684764862,0.024808384478092194,50.0
0.0890519917011261,0.028300635516643524,143.0
0.0788736641407013,0.027628354728221893,517.0
0.09086132049560547,0.03304878622293472,365.0
0.06530594825744629,0.02786678820848465,395.0
0.06381529569625854,0.029418349266052246,632.0
0.045072734355926514,0.025795504450798035,602.0
0.054117560386657715,0.03043290227651596,960.0
0.03543388843536377,0.02654222398996353,459.0
0.024429380893707275,0.02486429363489151,367.0
0.011552244424819946,0.02244368940591812,455.0
0.11422009766101837,0.016732223331928253,21.0
0.11280772089958191,0.017802536487579346,648.0
0.09909866750240326,0.01462843269109726,91.0
0.07788579165935516,0.008650243282318115,3989.0
0.09159417450428009,0.01487547904253006,4016.0
0.061068713665008545,0.005193732678890228,317.0
0.07848875224590302,0.012874595820903778,3626.0
0.0574614554643631,0.006295502185821533,3544.0
0.043053701519966125,0.0019822195172309875,3214.0
0.04826493561267853,0.005140677094459534,3590.0
0.036715731024742126,0.001718573272228241,3657.0
0.04653903841972351,0.006777405738830566,3868.0
0.023007050156593323,0.029527604579925537,3948.0
0.019882529973983765,0.02923184633255005,3786.0
0.026892751455307007,0.0019484013319015503,3629.0
0.02192389965057373,0.000851169228553772,3489.0
0.013309285044670105,0.02934325486421585,3247.0
0.05992317199707031,0.023234568536281586,3603.0
0.002571508288383484,0.02641725167632103,3656.0
0.0049603283405303955,0.028409991413354874,3686.0
7.922947406768799e-05,0.02705257013440132,3762.0
0.05139116942882538,0.022646211087703705,3252.0
0.048371538519859314,0.022008825093507767,3472.0
0.03907124698162079,0.018270529806613922,5.0
0.046848125755786896,0.022851653397083282,3857.0
0.038488246500492096,0.019448868930339813,3558.0
0.046211302280426025,0.024120159447193146,3662.0
0.03344947099685669,0.018325194716453552,3463.0
0.034930936992168427,0.019810888916254044,3801.0
0.03110017627477646,0.018499456346035004,4071.0
0.023766987025737762,0.015247393399477005,4074.0
0.027005046606063843,0.017666742205619812,3984.0
0.016222625970840454,0.012370508164167404,241.0
0.012480102479457855,0.010868702083826065,273.0
0.02266179770231247,0.0172419473528862,47.0
0.0033159181475639343,7.820010757456648e+74,2824.0
0.019145797938108444,1.5151386500743458e+75,2884.0
0.021927233785390854,1.651329516658124e+75,2875.0
0.027347739785909653,1.4305637876224809e+74,3069.0
0.006814509630203247,7.701537967822521e+74,2979.0
0.005273468792438507,6.134699198582661e+74,2927.0
0.0028361529111862183,4.0464636879830403e+74,3495.0
0.029858984053134918,9.171342497017973e+73,2639.0
0.007677577435970306,5.822265768646385e+74,3602.0
0.030227627605199814,9.140068958884079e+72,3488.0
0.0036268606781959534,2.2753591084269796e+74,3308.0
0.0011303499341011047,2.8816947793583976e+73,3702.0
0.02177729830145836,1.1859527406382497e+75,3633.0
0.028235986828804016,1.5013032368039107e+75,3513.0
0.0043817609548568726,4.8343282286094504e+73,3513.0
0.0036585628986358643,1.7635402655599783e+75,3356.0
0.010198011994361877,2.479827657542117e+74,3487.0
0.02341826632618904,1.053837786631398e+75,3811.0
0.0023598894476890564,1.5351058336147575e+75,3550.0
0.024618104100227356,1.026486165859067e+75,3600.0
0.03118695318698883,1.309895164252208e+75,3748.0
0.023978758603334427,9.057815240000469e+74,3743.0
0.02226874604821205,7.792751016182559e+74,3852.0
0.027022700756788254,9.632195825346246e+74,3642.0
0.02437952160835266,7.937704943831028e+74,3875.0
0.019862741231918335,5.424632436854714e+74,3940.0
0.0311574786901474,1.0135760179582486e+75,3838.0
0.009826455265283585,1.6908415831343532e+73,4065.0
0.00018687546253204346,9.293136752081493e+74,3685.0
0.00032339245080947876,8.870426356297905e+74,3779.0
0.026069778949022293,6.070150615874302e+74,3854.0
0.023365266621112823,4.514328759240506e+74,42.0
0.025365084409713745,4.912917551542061e+74,83.0
0.028316184878349304,5.662365246565648e+74,3856.0
0.02464502677321434,3.7779922254800875e+74,4059.0
0.030449271202087402,5.586918375016561e+74,4086.0
0.025812014937400818,3.3814286643721686e+74,58.0
0.027824562042951584,3.6996811291970817e+74,3972.0
0.0043195635080337524,6.061903028989887e+74,3837.0
0.02708323672413826,2.5637658338934903e+74,3992.0
0.0035997629165649414,4.827939799647202e+74,3999.0
0.026327211409807205,1.4508182563545778e+74,4025.0
0.028346896171569824,1.701164007514272e+74,172.0
0.005860775709152222,4.114350990486659e+74,3909.0
0.006935566663742065,3.959795008233218e+74,104.0
0.009942896664142609,4.391061412691093e+74,3724.0
0.011022016406059265,4.195990022586258e+74,3776.0
0.006288483738899231,2.26664134007269e+74,4058.0
0.012211263179779053,3.484260371347881e+74,3993.0
0.00940338522195816,2.1596211357827686e+74,10.0
0.023126281797885895,5.414743528417203e+74,4017.0
0.009602002799510956,1.1896151954730888e+74,16.0
0.02628359943628311,5.02165672203148e+74,4051.0
0.041051775217056274,8.134626864675096e+74,3783.0
0.04020364582538605,7.19583622901451e+74,3935.0
0.05697745829820633,1.0485851263023437e+75,3946.0
0.05907996743917465,1.0135887430530755e+75,3942.0
0.058238111436367035,9.09543191438621e+74,3550.0
0.007665112614631653,1.0854801368356994e+75,3723.0
0.010759592056274414,1.0584112719840135e+75,3468.0
0.015825316309928894,1.06750367575719e+75,3282.0
0.01793903112411499,1.0115050626950648e+75,3371.0
0.03583976626396179,1.2533812926893802e+75,3053.0
0.051793694496154785,1.4349783171295468e+75,3081.0
0.10731349885463715,4.842696596054934e+74,3738.0
0.06463825702667236,1.7214905132238634e+75,808.0
0.0817355215549469,1.7836027794718051e+75,1474.0
0.14047318696975708,2.472107191534938e+75,1335.0
0.16854318976402283,2.6231260287856492e+75,182.0
0.18175265192985535,2.5246877147188154e+75,3988.0
0.18304717540740967,2.247217237697941e+75,3507.0
0.18234065175056458,1.94264230869578e+75,3872.0
0.18659073114395142,1.6997901286321139e+75,3869.0
0.2236693799495697,1.829066739453848e+75,3644.0
0.0008178949356079102,1.8008187543747275e+75,3708.0
0.1982838213443756,9.279186597278043e+74,2663.0
0.21245810389518738,7.579342548752594e+74,2874.0
0.20668736100196838,3.9379509810456257e+74,2993.0
0.21984943747520447,1.912646456354335e+74,2519.0
0.2210308313369751,1.691387036775323e+75,2722.0
0.24016648530960083,1.5021922680052067e+75,2791.0
0.043251633644104004,1.4937719217825489e+75,3960.0
0.1512908935546875,1.7108820977296997e+75,2430.0
0.1824309229850769,1.41863325634376e+75,3993.0
0.20556741952896118,1.0521246437803806e+75,4793.0
0.20070135593414307,5.599216424288248e+74,5037.0
0.2228025197982788,1.474430856043535e+74,11793.0
0.21788936853408813,5.550057657535366e+74,4582.0
0.227949857711792,8.501927021272623e+73,4475.0
0.2199873924255371,4.149615679125159e+73,4719.0
0.20800000429153442,1.6170306411490282e+72,11550.0
0.20698851346969604,0.00013158190995454788,4682.0
0.20595312118530273,0.00032639317214488983,4888.0
0.21889185905456543,0.004658372141420841,4542.0
0.20880985260009766,0.0007959567010402679,4865.0
0.17571622133255005,0.003962725400924683,5269.0
0.07465195655822754,0.004379332065582275,5275.0
0.023567914962768555,0.005651067942380905,3380.0
0.02043849229812622,0.008557135239243507,3327.0
0.054242610931396484,0.013359840959310532,4435.0
0.03110337257385254,0.015248699113726616,5007.0
0.01794135570526123,0.0018827728927135468,5359.0
0.10053837299346924,0.010675590485334396,5348.0
0.20199358463287354,0.02186376228928566,4583.0
0.21562647819519043,0.027083896100521088,4264.0
0.22424083948135376,0.0007791891694068909,3923.0
0.2218691110610962,0.004805460572242737,3455.0
0.21449953317642212,0.008313171565532684,2496.0
0.1205892562866211,0.0026535242795944214,2493.0
0.11224853992462158,0.005380913615226746,1232.0
0.15753287076950073,0.014276213943958282,694.0
0.16898584365844727,0.019560903310775757,4095.0
0.10700339078903198,0.015544623136520386,438.0
0.10257476568222046,0.018541164696216583,288.0
0.006035566329956055,0.008556783199310303,4018.0
0.2219720184803009,0.006575629115104675,3652.0
0.24232280254364014,0.012481875717639923,3904.0
0.0037308335304260254,0.01722029596567154,2637.0
0.0160866379737854,0.02225595712661743,2913.0
0.026428937911987305,0.02710241824388504,3296.0
0.0308229923248291,0.031030848622322083,3792.0
0.017480432987213135,0.031786851584911346,250.0
0.21287229657173157,0.024622030556201935,1043.0
0.17407327890396118,0.0198763906955719,2598.0
0.18535321950912476,0.024698615074157715,3040.0
0.1681893765926361,0.023794054985046387,3745.0
0.18333110213279724,0.02954985946416855,2213.0
0.16813409328460693,0.02886693924665451,675.0
0.13539770245552063,0.024065665900707245,28.0
0.1241692304611206,0.023833028972148895,4048.0
